# .PCD v.7 - Point Cloud Data file format
VERSION .7
FIELDS x y z
SIZE 4 4 4
TYPE F F F
COUNT 1 1 1
WIDTH 1473
HEIGHT 1
VIEWPOINT 0 0 0 1 0 0 0
POINTS 1473
DATA ascii
230.359118 110.725985 57.605844
246.301020 119.600968 71.557082
259.772307 127.630715 86.213393
281.802405 140.309263 105.473767
308.567191 155.946139 128.949953
326.380599 168.202068 153.583101
328.663121 172.005633 167.462279
314.673045 168.624686 178.178533
307.733878 168.624686 189.912020
300.357404 168.624686 201.375632
292.554105 168.624686 212.553078
288.598319 172.005633 229.726082
274.236368 168.624686 235.714085
264.928595 169.469923 248.784615
255.363615 169.469923 258.593057
243.138961 169.047305 268.898595
233.995521 169.892541 279.260847
227.000373 174.118724 296.475127
210.430293 169.892541 297.421613
196.168877 169.047305 304.861904
185.000537 169.469923 312.819032
171.494164 169.892541 321.450270
148.560438 158.481848 305.676790
107.621449 126.362860 248.698716
89.153127 116.642640 233.713959
73.009222 106.077184 215.449030
60.962308 99.737910 205.016942
50.261804 94.243872 195.757103
41.792698 94.666491 198.664607
37.794635 104.386711 220.644466
33.863433 120.023586 255.154084
25.160764 124.672387 266.174251
13.934148 129.321188 276.979909
3.632869 134.815225 289.089359
-7.561634 140.309263 300.799156
-22.532420 152.142574 325.491824
-35.653866 155.946139 332.521584
-47.117187 152.565192 323.766633
-24.624710 61.279648 129.086903
-28.659488 59.589175 124.534188
-33.139725 57.898702 119.659930
-38.999402 60.011793 122.644328
-39.910165 54.940374 110.854562
-44.401440 54.517756 108.154179
-47.695139 53.672519 104.754162
-51.203081 53.249901 102.071997
-54.758281 52.404664 98.139094
-63.129405 56.630847 103.747893
-61.068841 51.136810 91.085802
-63.925776 50.714191 87.986169
-67.732543 50.714191 85.090384
-70.891490 50.714191 82.477072
-73.949697 50.714191 79.746556
-84.478068 55.362992 83.422989
-80.209715 50.714191 73.447072
-83.361477 50.714191 69.849373
-86.651007 51.136810 67.213314
-89.859274 51.559428 64.427761
-95.247449 53.249901 62.995011
-108.028496 58.743938 64.807359
-100.863894 53.672519 55.450298
-103.692256 54.095138 52.015692
-107.533371 54.940374 48.146957
-110.952735 55.785611 44.737637
-118.529165 58.743938 42.673020
-129.810208 63.392739 40.381562
-121.615699 58.743938 32.859876
-127.183890 60.857030 29.269097
-155.086928 73.535578 28.575577
-162.331778 76.493905 23.623639
-150.589233 70.577250 15.189959
-154.672825 72.267723 9.731055
-158.553777 73.958196 3.985592
-162.200272 75.648669 -3.057909
-170.113502 79.452233 -9.630112
-179.444623 84.101034 -18.100925
-194.792825 91.708163 -27.099229
-211.239023 100.160528 -38.922279
-221.120194 105.654565 -49.426438
-235.751804 113.684312 -62.112511
-252.697067 123.404532 -78.609884
-273.725453 135.660462 -98.547529
-297.554852 149.606865 -119.978731
-289.517349 148.339010 -131.818977
-278.672691 145.380682 -139.792662
-268.299554 143.267591 -149.702194
-262.466615 143.267591 -159.708088
-252.932401 141.999736 -169.579702
-248.560848 143.267591 -180.590427
-238.962077 142.422354 -190.215664
-230.248405 141.577118 -197.905512
-221.324204 141.577118 -207.837716
-212.696687 141.154499 -215.386923
-203.628682 141.577118 -225.202752
-199.652685 144.958064 -238.274978
-187.330189 143.690209 -244.664104
-176.405275 142.422354 -249.331209
-167.377794 142.844972 -256.561860
-159.164814 145.803300 -269.133721
-148.883991 147.493773 -279.070142
-143.013923 152.565192 -294.264983
-121.962185 141.154499 -277.049874
-96.857928 124.672387 -249.199393
-80.879012 115.374785 -233.829520
-65.095153 106.499802 -218.916453
-52.740905 98.892673 -205.413330
-42.911966 97.202200 -203.986018
-31.673883 87.481980 -184.912596
-22.893437 81.142706 -172.498556
-14.570287 77.339142 -165.213086
-8.196414 76.071287 -162.929365
-0.979242 72.690341 -155.881864
4.953609 73.535578 -157.619734
10.718466 66.351067 -141.886047
15.342576 63.392739 -135.077629
20.387519 63.563816 -128.720590
24.528687 61.810332 -124.333529
27.954971 59.180105 -118.073006
35.024105 64.002187 -126.463560
36.106699 56.988249 -111.124461
39.649818 56.111507 -107.997179
43.009392 55.234764 -104.763128
46.182496 54.358022 -101.431664
49.373460 53.042909 -96.900523
59.559658 59.618476 -106.744014
57.115020 53.042909 -92.549037
61.563664 53.919651 -91.823670
64.452475 53.481280 -88.710942
66.639553 52.604538 -84.805263
68.546241 51.289424 -79.748403
82.503773 59.180105 -88.971022
76.265321 52.604538 -76.265086
80.207674 53.042909 -73.445074
82.918843 53.042909 -70.369846
85.222499 52.604538 -66.105131
87.653461 52.604538 -62.846109
100.870644 58.741734 -65.806701
94.030353 53.481280 -56.409622
98.000295 54.358022 -53.076809
101.542931 55.234764 -50.141341
105.001263 56.111507 -47.013121
110.309511 57.864991 -43.674414
124.590552 64.440559 -43.972818
117.577101 60.056847 -36.575954
122.548115 61.810332 -32.286877
126.309385 63.125445 -28.233267
137.006821 67.947528 -25.244098
141.545146 69.701012 -19.691126
155.600580 76.276580 -15.695316
154.345483 75.399837 -8.737077
159.073989 77.591693 -1.998809
168.021407 81.975404 4.223729
171.330912 83.728889 10.779230
187.793770 92.057941 18.942953
194.958361 96.003281 27.122083
202.646807 100.386993 36.023927
216.955602 108.277673 47.066043
237.661996 119.675323 61.021247
242.946851 123.620663 72.240979
262.736917 135.018313 87.197290
281.991419 146.854334 105.544512
306.853679 162.635695 130.504598
319.608476 172.279861 150.396381
309.721659 170.088005 160.270287
303.460975 170.088005 171.829879
296.769056 170.088005 183.145292
289.172879 170.526376 196.521757
280.836665 170.088005 206.748248
272.141534 169.649634 216.626378
260.997865 168.772892 227.202169
253.559510 169.649634 238.108330
243.472630 170.088005 249.670080
233.456864 170.964747 261.474565
221.717221 169.649634 268.010215
210.260807 170.088005 278.216577
197.824808 170.088005 287.192298
186.859915 170.088005 294.444295
174.628575 170.964747 303.934065
162.335487 172.279861 313.712988
142.359800 163.074067 302.530223
102.715103 128.004375 241.512914
84.750568 117.921838 226.434938
69.157841 109.154416 212.846204
57.651906 103.017219 203.196236
50.377565 103.893962 206.971364
39.663056 99.948621 201.050031
38.946758 121.428808 245.900782
29.517376 127.566004 259.878124
20.513981 132.826457 271.560875
8.892896 138.086911 282.980426
-1.880667 145.977592 299.292509
-13.594429 150.799674 308.886144
-26.473419 158.251984 323.382850
-42.806691 166.581036 338.848559
-21.926662 65.755672 133.024107
-26.829136 63.563816 127.533677
-32.925125 66.194043 131.663529
-33.852059 59.180105 116.519326
-38.653996 58.741734 114.066986
-41.964714 57.426620 110.009754
-46.047146 56.549878 106.408513
-49.637195 56.111507 103.786549
-58.806223 60.933589 110.226702
-56.129095 54.358022 96.284631
-59.335556 53.481280 92.211954
-62.768882 53.481280 89.910067
-66.114954 53.042909 86.349654
-68.749599 52.604538 83.103882
-80.812071 59.180105 90.510355
-75.300881 52.604538 77.217484
-78.157720 52.604538 74.324514
-80.229296 52.166166 70.731543
-83.961321 52.604538 67.699773
-87.173725 53.042909 65.024545
-101.842437 60.056847 69.211943
-93.712252 53.919651 58.648828
-97.414789 54.796393 55.970654
-101.378012 55.673136 52.459515
-107.349456 57.864991 50.514721
-112.485488 59.618476 47.839861
-125.423090 65.317301 46.943568
-116.013738 59.618476 38.502598
-120.834903 61.371961 35.105680
-122.944130 61.810332 30.744491
-129.292798 64.440559 27.199023
-164.063101 81.098662 27.042667
-158.846677 78.030064 19.053665
-148.702379 72.769610 12.173176
-156.279050 76.276580 5.894238
-158.187752 77.153322 -0.000139
-164.362438 80.221920 -6.199402
-174.766882 85.482374 -13.202298
-194.542519 95.564910 -23.335730
-201.514317 99.510250 -31.916923
-213.126428 106.085818 -43.438750
-227.057120 113.976498 -55.266826
-243.395894 123.620663 -70.713297
-263.589882 135.456684 -87.480630
-291.399835 152.114788 -111.158570
-295.274185 156.498499 -125.580156
-286.223781 154.745015 -136.890202
-276.882792 152.553159 -145.490388
-267.112133 150.799674 -155.713091
-257.259104 148.607819 -163.261966
-254.253799 151.238046 -177.502279
-239.495474 146.415963 -180.998021
-230.613189 145.977592 -190.780239
-223.258788 145.977592 -199.336540
-214.939715 145.539221 -206.986120
-206.869803 146.415963 -217.539078
-203.278786 149.922932 -230.575041
-188.995097 146.854334 -234.392103
-180.105110 148.169448 -244.646611
-172.271951 149.484561 -253.491106
-162.847914 151.238046 -263.879917
-156.329397 154.745015 -276.087124
-149.117077 158.251984 -288.169059
-133.659629 155.183386 -288.737286
-108.888157 139.840396 -265.233921
-88.901687 125.812519 -242.150160
-72.449154 116.606725 -227.837643
-58.053100 106.085818 -209.617835
-45.879150 102.578848 -205.252731
-36.377876 94.688168 -190.700816
-25.757544 87.235858 -176.995633
-17.918400 81.975404 -167.116618
-10.271093 79.783549 -163.257741
-4.065408 78.906806 -161.731841
2.914034 75.399837 -154.565109
8.026356 69.262641 -141.782454
13.891680 67.509157 -137.715413
18.453099 65.317301 -132.642879
22.652769 63.125445 -127.428530
29.213992 65.317301 -130.695038
31.600292 60.495218 -119.940611
34.528927 57.864991 -113.505048
38.588728 56.549878 -109.334447
42.020407 55.673136 -106.130991
45.911567 54.796393 -102.540155
48.947804 53.919651 -99.125091
53.077111 54.358022 -98.000131
54.445419 52.166166 -92.061867
57.390206 51.727795 -89.188561
61.775280 52.166166 -87.312690
65.568625 52.604538 -85.635963
73.905898 56.549878 -89.336608
71.734297 52.166166 -79.333988
75.300949 52.604538 -77.217418
79.278427 53.042909 -74.447168
82.028026 53.042909 -71.406252
83.681881 52.166166 -66.611064
93.371074 56.549878 -68.738300
90.691860 53.481280 -61.633913
93.314083 53.481280 -57.586758
96.982470 54.358022 -54.914533
99.781553 54.796393 -51.633293
103.586561 55.673136 -47.951290
120.247534 63.563816 -50.251088
117.005472 60.933589 -43.792890
116.253398 59.618476 -37.772804
121.053122 61.371961 -34.345657
125.070016 62.687074 -29.611176
134.033389 66.632414 -26.441860
149.283882 73.646353 -22.683417
143.781389 70.577755 -16.330730
150.568421 73.646353 -11.373890
156.313004 76.276580 -4.912060
161.779735 78.906806 1.016506
180.482896 88.112601 7.943177
181.040577 88.550972 13.676067
187.540905 92.057941 21.301282
197.267934 97.318395 29.974862
211.006868 104.770704 40.251724
220.726532 110.469529 50.796467
234.273398 118.360210 63.299571
247.580040 132.111235 77.017823
268.027211 144.822969 94.597684
298.237277 163.436580 118.080528
309.884609 172.516390 136.417096
305.324217 172.970380 148.389252
298.728329 172.516390 159.372145
295.588353 174.332352 172.312962
286.626915 172.970380 181.899035
277.366130 171.608409 191.056493
270.682299 172.062399 201.907463
262.880041 172.062399 211.966070
252.637713 171.608409 222.730196
250.520168 176.148314 238.233954
234.858801 172.516390 243.884068
223.319318 172.062399 253.306165
211.965955 172.062399 262.880134
201.907344 172.062399 270.682388
192.067252 172.516390 278.833761
185.293975 177.964276 296.072388
167.267781 172.970380 295.404362
156.424573 173.424371 302.290159
138.116282 167.522494 298.364050
101.005929 133.473207 241.699618
82.604199 122.123444 224.996468
72.137995 118.945511 222.018186
55.409987 105.779786 200.073412
47.829811 105.779786 202.019667
38.233298 103.963824 200.426391
37.746160 128.025321 248.412449
27.927316 133.473207 260.462988
19.567354 144.368979 282.663610
8.871818 143.914988 282.309700
-3.728541 151.178836 296.681744
-15.579410 157.988694 309.678631
-28.649163 166.160523 324.847512
-44.897222 173.878361 338.289159
-23.918708 72.184489 139.636295
-27.390522 65.828622 126.259066
-32.572959 66.736603 126.863029
-35.266917 61.742708 115.931370
-38.737556 60.380736 111.993609
-42.608302 59.926746 109.623527
-50.617973 64.012660 114.983478
-50.242076 58.564774 103.377469
-54.314470 58.110784 100.284969
-58.055638 58.110784 98.166591
-59.785734 56.294822 92.911566
-63.813065 56.294822 90.193047
-71.500480 59.926746 93.383438
-68.153924 54.478860 82.383836
-72.307864 54.932850 79.968461
-75.270514 54.932850 77.186344
-77.941945 54.478860 73.192260
-83.333369 56.294822 72.542695
-90.863614 59.472755 73.265237
-88.256799 55.840831 64.973371
-92.116818 56.748812 62.602429
-96.676725 58.110784 60.504113
-100.794164 59.018765 57.072952
-106.830316 61.288717 55.280889
-113.675200 64.012660 53.491384
-109.051069 60.380736 46.379210
-114.051600 62.196698 43.506359
-116.699849 62.650689 38.730304
-120.643567 64.012660 35.050092
-123.799445 64.920641 30.133167
-137.070010 71.276508 27.936922
-165.279022 85.350214 27.243088
-151.277710 77.632375 18.145767
-150.078068 76.724394 12.285794
-153.995067 78.540356 6.777294
-163.945200 83.534252 -0.000144
-168.280574 85.804204 -6.347185
-174.141105 88.982138 -13.155025
-184.145326 94.430024 -20.915769
-199.768314 103.055843 -31.640382
-212.420367 110.319691 -41.906481
-232.881374 122.123444 -56.684479
-244.294219 129.387292 -69.312791
-260.460380 139.829074 -86.442006
-281.216981 152.994798 -105.254935
-295.175604 163.436580 -125.538229
-286.203281 161.166627 -134.677392
-284.880584 163.436580 -147.416204
-268.852688 157.988694 -154.472666
-259.818412 156.172732 -162.605260
-252.031313 155.264751 -171.280689
-243.961567 154.356770 -179.601618
-230.279978 150.724846 -185.680243
-229.913507 156.172732 -202.696465
-215.653779 151.632827 -205.077872
-207.046385 152.086817 -215.003242
-199.982600 152.994798 -223.983373
-192.534426 153.902779 -232.734675
-182.652538 154.356770 -241.685825
-178.925580 160.712637 -259.755819
-167.575928 159.350665 -264.058088
-157.504460 159.350665 -270.186436
-148.886768 161.166627 -279.075346
-138.394509 163.436580 -289.370773
-116.122262 151.178836 -273.037689
-97.809803 139.829074 -256.408020
-76.899197 124.393397 -231.708429
-62.891204 114.859596 -216.473947
-49.940892 107.595748 -205.178123
-38.284507 100.785891 -194.063136
-28.712899 93.522043 -181.287608
-20.814809 93.976033 -183.260058
-12.282140 83.080261 -162.590957
-4.925540 79.902328 -156.739775
0.957514 77.632375 -152.359107
7.207842 73.092470 -143.270855
12.132963 70.368527 -137.572023
18.052789 69.914537 -136.022257
21.662338 65.374632 -126.463041
26.823931 64.466651 -123.646786
30.645483 61.288717 -116.316583
34.748387 60.834727 -114.226466
38.254379 58.564774 -108.387129
44.608348 61.742708 -112.667357
45.233173 57.202803 -102.751153
48.294796 56.294822 -99.370548
51.166973 55.386841 -95.907449
54.880802 54.932850 -92.798058
56.892954 53.570879 -88.415795
68.345608 60.834727 -97.897977
62.854181 53.116888 -83.168192
65.882197 52.662898 -79.637650
68.836944 52.662898 -77.097953
72.160227 52.662898 -73.996762
75.543579 53.116888 -71.838456
88.222830 59.926746 -77.778643
83.233904 54.478860 -67.113121
84.275866 53.570879 -62.862861
88.432198 54.478860 -60.098254
92.145054 55.386841 -57.667901
95.798230 56.294822 -55.041732
108.847161 62.650689 -57.194288
103.194551 58.110784 -48.559463
110.162472 60.834727 -46.036571
112.653798 61.288717 -42.164143
116.093529 62.196698 -37.720860
120.861441 64.012660 -34.291272
136.785430 71.730499 -33.293868
132.872069 69.006556 -26.212757
139.925882 72.184489 -22.161836
144.306236 74.000451 -16.390342
150.152309 76.724394 -11.342457
157.596109 80.356318 -5.943774
163.054194 83.080261 0.000000
166.499833 84.896223 6.279873
176.806542 90.344109 13.356222
189.457230 97.153967 21.518942
207.010360 106.687767 31.455224
208.303393 108.049739 39.736009
218.814067 114.405606 50.356345
233.494852 123.031425 61.517661
255.730997 136.197150 77.794558
266.090119 143.460998 92.037985
286.516086 156.626722 111.362482
308.282445 171.154418 133.405769
304.642927 172.062399 145.699066
308.400006 177.510285 162.051026
291.257226 171.154418 167.345132
284.743010 171.154418 178.203770
279.298025 172.062399 189.810810
271.945570 172.062399 200.202741
268.428960 175.694323 216.440288
255.376258 172.516390 222.308484
245.354804 172.516390 233.321914
236.386524 172.516390 242.403602
227.082326 172.516390 251.140821
217.524377 173.878361 262.941935
210.167836 176.148314 274.490897
193.815414 172.516390 277.621470
183.214095 172.516390 284.729153
170.966638 172.970380 293.279144
160.210814 173.424371 300.300654
143.776782 169.792447 300.623954
107.404596 139.829074 252.539270
87.330383 124.847387 228.935655
72.128270 116.675558 217.332296
59.162656 108.049739 203.639471
48.044576 103.509834 197.386507
40.748846 103.963824 199.930125
37.633621 122.577435 237.609939
30.985868 132.565226 258.322157
22.027311 137.559121 269.074870
10.544690 142.553017 279.577265
-0.000129 148.908884 292.250140
-13.672523 158.442684 310.660551
-26.752930 167.068504 326.797178
-42.659143 173.424371 337.680596
-22.414387 67.644584 130.854138
-26.780103 66.282613 127.300594
-32.572959 66.736603 126.863029
-36.569443 65.374632 122.983061
-42.815193 66.736603 123.782410
-42.285512 59.472755 108.793046
-45.648174 58.564774 105.486546
-49.787649 60.561832 102.442445
-53.613349 60.561832 100.493151
-64.272400 67.134433 108.678547
-62.111680 61.031303 96.526262
-65.275759 60.092360 92.260411
-68.169921 59.622888 89.033550
-71.477176 59.622888 86.400952
-73.430399 58.214474 81.209923
-80.137706 61.031303 82.177419
-80.618724 59.153417 76.664820
-82.579640 58.214474 71.886565
-84.543041 57.745002 68.168827
-87.052267 57.745002 64.933947
-89.437787 57.745002 61.606793
-95.423699 60.092360 60.557624
-97.228446 59.622888 55.863589
-100.046485 60.092360 52.570041
-103.858970 61.031303 48.872226
-108.064729 62.439718 45.959721
-112.195068 63.848133 42.798162
-127.376361 71.359678 42.273621
-120.400266 66.664962 34.979406
-123.346241 67.603905 30.845047
-128.741335 69.951263 27.083013
-163.784115 88.260654 26.996681
-151.545471 81.218580 19.144515
-155.677489 83.096467 13.729403
-152.557010 81.218580 7.674684
-157.161570 83.565938 0.987350
-163.264699 86.852239 -5.130945
-174.326920 92.955369 -13.169062
-184.234391 98.589028 -20.925885
-209.298460 112.673175 -33.149818
-211.365330 114.551061 -41.698342
-227.686621 124.409964 -53.906989
-237.837540 131.452038 -67.480859
-256.958236 143.658298 -83.491067
-276.007883 156.334030 -101.332716
-304.664297 175.112893 -125.076540
-288.453894 169.009763 -133.529215
-279.282639 166.662405 -142.301968
-268.914172 164.315047 -152.268622
-260.729918 162.906632 -160.904751
-251.212289 161.498218 -170.724080
-252.420658 166.662405 -185.829100
-234.875229 159.620331 -186.962501
-223.097878 157.272974 -194.210063
-216.906827 158.211917 -203.689514
-207.834807 157.272974 -210.463548
-200.748846 159.150860 -222.017803
-200.744434 166.192933 -239.577923
-185.619257 161.028746 -239.299466
-178.011580 162.437161 -248.278163
-168.370414 163.845575 -258.083380
-158.657969 165.723462 -268.276691
-150.536300 168.070819 -277.947876
-144.731013 176.051836 -297.798061
-123.799015 163.376104 -281.222426
-101.085478 146.005656 -255.313679
-81.103337 131.921509 -234.478067
-67.068815 122.532078 -220.473726
-52.698977 112.673175 -205.250027
-43.078259 111.264760 -204.776504
-31.900975 100.466914 -186.238360
-22.021649 93.424841 -174.321100
-14.427437 87.321711 -163.593300
-7.065311 85.443824 -160.541067
0.000200 80.749109 -151.866986
6.755153 81.688052 -153.484299
11.454585 74.645978 -139.920586
16.820907 71.359678 -133.149741
21.252990 69.481791 -128.936384
27.083296 69.951263 -128.741275
29.774300 65.256547 -119.063320
36.742106 68.542848 -123.563326
37.689216 62.439718 -111.219623
40.595550 60.561832 -106.420233
44.534066 59.622888 -102.911749
47.619278 58.683945 -99.567057
51.535397 58.214474 -96.598022
58.696970 61.970246 -100.689395
57.719186 57.275531 -90.950586
60.651438 56.336588 -86.876879
63.882749 56.336588 -84.529186
66.464753 55.867116 -81.377527
71.742659 57.275531 -80.352377
77.782483 59.622888 -80.771261
75.683532 55.867116 -72.882566
78.814851 55.867116 -69.484420
81.377732 55.867116 -66.464502
84.529382 56.336588 -63.882489
90.892115 58.683945 -62.608450
98.047729 61.500775 -61.362021
95.697337 58.683945 -54.983763
98.483304 59.153417 -51.748547
103.060097 60.561832 -48.496195
110.502321 63.848133 -46.996309
115.494962 65.726019 -44.056830
125.700393 70.420734 -41.717279
120.400297 66.664962 -34.979300
124.395537 68.073377 -30.278141
130.639305 70.890206 -26.626128
137.648372 74.176507 -22.688579
146.402802 78.401751 -17.560891
154.000684 82.157523 -12.606774
154.406051 82.157523 -5.823460
159.813514 84.974353 0.000000
164.993884 87.791182 6.223073
185.857147 99.058500 12.866021
186.995999 99.997443 20.050135
197.466109 106.100573 28.736806
205.794345 111.264760 37.918871
219.729253 119.715249 49.115321
232.616618 127.696265 59.725814
243.741452 135.207810 72.477256
262.578777 147.414071 88.980210
280.487576 159.620331 106.995652
307.943737 177.929722 130.968198
294.799569 173.235007 138.722192
287.793284 172.296064 148.923108
281.975858 172.296064 159.664279
278.011879 173.704478 171.569663
269.881105 172.765535 180.942695
262.155263 172.296064 190.467018
255.484507 172.765535 200.757906
247.080080 173.235007 212.372471
238.252738 172.765535 220.933707
234.751123 176.521308 234.751226
224.202531 176.521308 244.845774
211.958362 174.173950 249.756057
200.230913 173.704478 258.136274
189.844952 173.235007 264.782036
178.984263 174.173950 274.352089
172.150490 177.929722 286.960315
156.423449 174.643421 288.817209
145.035797 174.173950 293.715939
127.000967 167.601348 288.495308
93.934945 135.677282 237.252821
78.461135 125.348907 222.307224
65.527192 119.715249 215.405307
51.963192 108.447931 197.230507
44.877833 109.386874 200.772239
36.624996 111.264760 206.028548
35.038441 135.207810 251.863367
24.927704 140.841469 263.708722
16.068615 151.169843 283.854678
3.605800 152.578258 286.935312
-7.522055 159.150860 299.224702
-21.707737 167.131876 313.578874
-35.299678 176.051836 329.218292
-45.628760 161.498218 300.287099
-25.644488 72.768092 134.432753
-29.089378 67.134433 122.864869
-32.285544 64.317604 116.575681
-36.561398 62.909189 112.524211
-40.545008 61.500775 108.327083
-43.918167 60.561832 105.092622
-52.255834 65.256547 111.049137
-51.128958 59.153417 98.806391
-54.544102 58.214474 94.931639
-57.614924 57.745002 92.059954
-61.106042 57.275531 88.710570
-65.461981 58.214474 87.759923
-76.518163 64.317604 93.686801
-71.236306 57.275531 80.801623
-73.622667 56.806059 77.419471
-76.488311 56.806059 74.589610
-81.011162 57.745002 72.330535
-82.999430 57.275531 68.663004
-95.095492 63.378661 71.867884
-88.324962 57.275531 61.662101
-92.441709 58.214474 58.665199
-95.349928 58.683945 55.584042
-98.935187 59.622888 52.782003
-101.956774 60.092360 48.761917
-115.877119 67.134433 50.144402
-108.632066 61.970246 42.222777
-113.484030 63.848133 39.252911
-118.261753 65.726019 35.975661
-121.439585 66.664962 31.180281
-125.979997 68.542848 27.329807
-169.703166 91.546955 29.068720
-150.546919 80.749109 19.980156
-142.402716 76.054393 13.460897
-149.911513 79.810166 7.541597
-155.386508 82.626995 1.952611
-162.382187 86.382768 -5.103210
-183.214617 97.650085 -12.683252
-181.728489 97.180613 -19.485502
-195.718597 105.161630 -28.482670
-207.286614 112.203704 -39.542237
-221.997640 121.123663 -51.089196
-236.109585 130.043623 -63.795923
-263.367764 146.944599 -83.747868
-272.485383 153.986673 -98.101075
-294.862764 169.479234 -121.052630
-288.483608 168.540291 -131.348308
-278.495928 166.192933 -141.901118
-271.407679 165.253990 -151.436424
-269.278577 167.601348 -163.853093
-248.447621 165.804890 -166.572861
-240.577766 164.835271 -174.790366
-233.818946 164.835271 -183.733595
-224.727316 163.380842 -190.717943
-218.048436 164.835271 -202.198450
-212.746403 166.774509 -212.746871
-202.197970 164.835271 -218.048880
-194.113011 166.289700 -228.728823
-185.894647 166.774509 -236.570166
-178.902539 168.713748 -246.238813
-168.385348 169.198557 -254.596196
-163.670983 174.531463 -268.980627
-152.528828 175.501083 -277.449683
-141.571156 175.016273 -282.219617
-129.383974 173.077034 -284.170948
-106.625181 158.047936 -264.438879
-87.990959 143.988457 -244.405228
-73.415967 134.292265 -230.878071
-57.718426 122.656834 -213.618549
-45.703080 112.960642 -198.595372
-34.866709 106.658116 -189.230967
-24.705164 99.385972 -177.586833
-15.967725 94.053066 -168.923215
-9.589631 94.053066 -169.405017
-1.956105 86.296112 -155.670018
3.780635 83.387255 -150.387076
9.664388 77.569539 -139.605036
15.497092 76.115110 -136.438008
20.102890 74.175872 -132.298200
25.561787 73.206253 -129.570211
28.210604 67.873347 -119.152720
32.467323 65.934108 -114.431492
36.916275 64.964489 -111.233106
40.162686 63.510060 -107.305316
45.526469 64.479679 -107.045372
48.411493 63.025251 -102.879274
50.447097 60.116393 -96.005780
54.179026 59.631583 -92.939267
57.174783 59.146774 -90.092748
59.537481 58.177154 -86.433252
66.444223 61.086012 -87.918509
68.050900 59.631583 -83.319561
69.407687 58.177154 -78.727325
72.802058 58.177154 -75.599465
76.055621 58.177154 -72.325384
79.162082 58.177154 -68.911418
86.469135 61.570822 -69.721751
88.042371 60.601203 -64.815393
88.975956 59.631583 -60.467790
93.037160 60.601203 -57.415861
95.896150 61.086012 -54.299425
99.749441 62.055631 -50.824675
107.943793 65.934108 -49.968298
112.978364 67.873347 -47.213324
111.660846 65.934108 -40.994498
116.453851 67.873347 -37.837935
121.376464 69.812585 -33.614830
125.961538 71.751824 -29.822250
139.178747 78.539158 -26.549520
139.215819 78.054349 -21.153593
146.098718 81.448016 -15.664776
149.202914 82.902445 -10.328356
156.479685 86.780922 -4.917298
162.666421 90.174589 2.044235
168.638361 93.568257 7.421891
181.314361 100.840401 14.843042
186.704858 104.234068 22.395422
196.958183 110.536593 31.195121
215.641073 121.687215 41.135746
220.756162 125.565692 50.803285
235.166785 135.261884 65.129147
253.382325 147.382125 80.572370
273.207061 160.956794 98.360624
287.962430 172.107415 116.110623
284.978108 173.077034 127.596308
280.042953 172.592225 136.102418
273.942579 172.107415 146.148900
275.039995 176.470702 160.334316
261.840360 172.592225 168.486053
253.152604 171.137796 176.733171
248.878497 172.107415 185.643560
240.475414 172.107415 196.406753
240.774683 177.925131 212.271524
224.278696 172.592225 215.979143
217.192410 173.561844 225.538785
206.487456 173.077034 234.214156
197.513164 173.077034 241.830292
187.212269 173.561844 250.981778
183.077286 178.894750 265.782572
168.712008 174.531463 265.847751
155.552857 173.077034 270.733539
146.051993 174.046654 277.952474
133.689700 174.046654 284.105309
119.121395 168.713748 280.088851
92.582199 143.988457 242.703236
71.628213 126.050501 215.825555
58.806607 116.839118 202.413941
48.608896 113.930261 199.704960
40.119798 114.899880 203.365236
35.983745 127.504930 227.193008
32.186790 149.806173 268.333973
21.907641 148.836553 267.613033
10.581509 155.623888 280.553448
-0.000129 162.411223 292.997602
-13.497978 170.168177 306.694630
-26.260907 178.409940 320.786935
-43.628493 192.954229 345.353761
-21.763652 74.175872 132.035160
-26.827736 72.236633 127.527022
-31.973898 71.267014 124.529846
-35.127404 66.903728 115.472753
-38.882829 65.934108 112.413607
-46.363598 69.812585 117.100895
-45.810746 63.025251 104.063410
-49.954672 62.540441 101.164341
-53.511666 61.570822 97.337226
-57.142304 61.570822 95.251200
-60.310099 60.601203 91.187643
-68.800457 65.449299 95.957733
-67.008685 60.116393 85.275174
-70.175112 60.116393 82.689014
-73.742929 60.116393 79.523580
-77.168118 60.116393 76.204336
-79.795311 59.631583 72.151109
-89.161906 64.479679 74.709607
-85.694604 60.116393 66.471453
-89.248344 60.601203 63.144495
-92.297378 61.086012 60.213729
-95.608428 61.570822 56.542572
-98.440663 62.055631 53.315424
-105.409471 64.964489 51.229469
-106.464935 64.479679 46.867777
-110.595348 65.934108 43.787697
-116.546513 68.358156 40.312191
-121.330115 70.297395 36.909069
-122.635017 70.297395 32.309888
-132.484407 75.145491 28.740859
-144.668076 81.448016 25.717087
-138.604349 77.569539 19.282140
-143.671800 79.993587 13.580860
-149.320913 82.902445 8.452781
-157.403583 87.265732 2.967201
-167.873947 93.083447 -4.220170
-171.960078 95.507495 -10.818966
-181.872571 101.325211 -18.345837
-195.603601 109.566974 -28.465935
-209.014120 117.808738 -38.512325
-225.017819 127.989740 -51.784242
-238.948670 137.201123 -64.563033
-251.715265 146.412505 -80.042510
-271.561149 159.987175 -97.768329
-292.829296 175.016273 -118.073314
-288.150644 175.501083 -131.196708
-283.782847 175.985892 -142.356108
-274.957962 174.531463 -153.417363
-263.002927 170.652986 -160.034429
-255.325326 169.683367 -168.868389
-246.646835 168.228938 -176.842764
-236.569757 166.774509 -185.895167
-231.395783 168.228938 -196.377229
-219.331074 165.804890 -203.387853
-210.272608 164.835271 -210.273070
-203.186581 166.774509 -221.895192
-195.810793 167.744129 -230.729367
-186.975429 167.744129 -237.945574
-182.501153 172.107415 -251.191892
-174.175102 175.016273 -263.350219
-161.852417 172.592225 -265.991953
-153.416759 174.531463 -274.958299
-143.738657 175.501083 -282.103826
-131.901736 174.046654 -284.939808
-111.274036 162.411223 -271.045538
-87.990959 143.988457 -244.405228
-72.355808 132.353026 -227.544091
-57.946562 123.141644 -214.462891
-46.879983 115.869499 -203.709416
-35.025194 107.142926 -190.091108
-26.576201 102.294830 -182.621120
-17.028779 94.053066 -168.819553
-10.324338 91.144209 -164.104056
-4.000020 88.235351 -159.130521
2.852143 83.872064 -151.282326
8.008209 78.539158 -141.461900
13.956942 77.084730 -138.362380
19.019333 73.206253 -130.690893
23.456122 71.751824 -127.300770
27.853698 68.842966 -121.032299
31.254947 66.418918 -115.674784
35.515600 64.964489 -111.688215
42.070060 68.842966 -116.853567
42.849083 62.540441 -104.372646
46.390041 62.055631 -101.887500
49.633771 60.601203 -97.411411
52.843800 60.116393 -94.707719
55.921162 59.631583 -91.901567
62.830155 62.540441 -93.712672
62.204844 58.661964 -85.617354
65.364420 58.177154 -82.115232
68.911661 58.177154 -79.161870
71.722905 57.692345 -75.421603
73.782394 59.500000 -71.950736
86.564654 67.000000 -77.288814
80.741474 60.500000 -66.794943
84.291151 61.000000 -63.702448
88.052418 62.000000 -61.471715
90.670062 62.000000 -57.540767
93.522541 62.500000 -54.518660
106.972219 70.000000 -57.069645
100.784028 64.500000 -48.200930
108.384481 68.000000 -46.095599
110.853976 68.500000 -42.286475
115.071856 70.000000 -38.189894
118.924396 71.500000 -34.550514
134.424741 80.000000 -33.615308
128.984109 76.000000 -26.288776
135.864758 79.500000 -22.394586
140.908262 82.000000 -17.800606
147.596621 85.500000 -12.082525
153.138270 88.500000 -6.739451
168.005614 97.000000 -1.055329
164.463634 95.000000 5.168479
173.655512 100.500000 12.021358
185.134294 107.500000 19.850519
203.108538 118.500000 29.557936
204.405245 120.000000 37.662921
216.363186 128.000000 48.362916
227.785812 136.000000 60.013531
241.932781 146.000000 73.597076
264.928207 161.500000 89.776362
279.966789 173.000000 106.796991
278.930442 175.000000 118.628870
274.261109 175.000000 129.057523
274.586076 178.500000 142.088834
263.006810 174.500000 148.923362
257.943969 175.000000 159.185140
250.322340 174.000000 167.829455
244.519584 174.500000 177.653942
236.472005 174.500000 188.233208
231.836482 176.500000 199.270158
222.891190 175.500000 206.688818
213.587918 175.500000 216.289046
204.699327 175.000000 223.546831
197.249093 176.000000 232.423741
190.554653 179.500000 245.661707
180.655596 179.000000 251.965385
168.164177 176.000000 254.261302
158.461534 176.000000 260.418783
146.440953 175.500000 266.375294
137.073789 176.500000 273.253594
128.465782 181.500000 286.920360
107.844682 166.500000 267.462660
77.445816 132.000000 215.114262
65.854787 128.000000 211.695883
53.537130 118.500000 198.142690
46.613726 120.000000 202.551624
38.918259 124.000000 211.218771
36.292546 145.500000 249.386449
27.882940 151.000000 260.049114
18.779515 157.000000 271.282749
7.116477 163.500000 283.100876
-3.711067 170.500000 295.291344
-18.110346 185.000000 319.917201
-30.807224 189.000000 325.904764
-46.658148 195.500000 335.385997
-22.887800 75.500000 128.751305
-28.148784 74.500000 125.930123
-33.095752 75.000000 125.617161
-39.615882 77.000000 127.348270
-39.199364 68.000000 111.064890
-43.397054 67.000000 107.627579
-46.361021 65.500000 103.544221
-49.847241 65.000000 100.946781
-53.403054 64.000000 97.139661
-62.818058 70.500000 104.712184
-60.195211 63.000000 91.013936
-63.120637 62.000000 86.877991
-66.879458 62.000000 84.018677
-69.998618 62.000000 81.438280
-72.325943 61.000000 77.019206
-84.420547 68.500000 83.366187
-79.011216 61.500000 71.442129
-80.983941 61.000000 67.857212
-84.576795 61.500000 64.757360
-87.664389 62.000000 62.023825
-90.665112 62.500000 59.148858
-105.104894 70.500000 62.158758
-101.623560 66.500000 54.216252
-102.036959 65.500000 49.590413
-106.211398 67.000000 46.756165
-109.778861 68.000000 42.668510
-115.401288 70.500000 39.916070
-131.156498 79.000000 38.999655
-123.306216 73.500000 31.659549
-126.950876 75.000000 27.540427
-133.867283 78.500000 23.797072
-137.359630 80.000000 18.229977
-142.260034 82.500000 13.447410
-159.093971 92.000000 9.006016
-154.991011 89.500000 2.921722
-162.761354 94.000000 -4.091645
-170.199671 98.500000 -11.782277
-181.689918 105.500000 -19.481366
-193.681535 113.000000 -28.186219
-214.372762 126.000000 -40.893999
-220.274825 130.500000 -50.692718
-235.764636 141.000000 -63.702719
-250.067132 151.500000 -79.518423
-266.448220 163.500000 -95.927556
-284.329523 177.000000 -114.646074
-290.836402 184.500000 -132.419549
-274.801591 177.500000 -137.850773
-268.474799 177.500000 -149.799975
-259.678748 175.500000 -158.011702
-252.816415 175.000000 -167.209032
-244.519427 174.500000 -177.654157
-240.373651 176.500000 -188.884245
-226.480835 171.500000 -192.206091
-216.540837 170.500000 -200.800438
-210.043514 171.500000 -210.043976
-202.566531 172.000000 -218.446333
-197.011836 174.500000 -229.209699
-192.008341 178.000000 -241.215250
-179.699895 175.000000 -244.096186
-170.240463 176.500000 -253.919150
-161.004054 177.000000 -260.892113
-149.799384 177.500000 -268.475128
-141.146734 179.500000 -277.016876
-130.983474 182.500000 -287.683992
-109.851723 167.000000 -267.581014
-89.242092 149.500000 -243.077352
-72.694557 138.500000 -228.609386
-59.403716 128.500000 -214.494635
-49.082422 123.000000 -207.311157
-37.648009 116.000000 -197.359133
-27.450695 105.500000 -180.657713
-19.449342 99.500000 -171.238060
-11.423063 95.500000 -165.015950
-4.950651 91.000000 -157.538856
1.969942 90.500000 -156.738219
7.440896 85.500000 -147.903290
13.040216 80.000000 -137.949095
18.376983 77.000000 -132.095747
22.736337 75.000000 -127.898628
28.337813 75.000000 -126.775267
32.213307 73.000000 -122.267342
36.042560 71.500000 -118.480732
38.622999 67.000000 -109.431549
41.763633 65.500000 -105.482458
45.011757 64.500000 -102.248187
48.697007 63.500000 -98.617197
54.853921 66.500000 -101.280785
57.471925 64.500000 -95.800459
58.202672 61.500000 -89.214343
62.068975 61.500000 -86.569004
64.226087 60.500000 -82.799515
67.804516 60.500000 -79.895542
76.031325 65.000000 -83.031546
75.321926 61.500000 -75.321694
76.837259 60.500000 -71.251566
79.895751 60.500000 -67.804270
83.484008 61.000000 -64.756624
86.569195 61.500000 -62.068708
97.193056 67.000000 -63.407490
94.668997 63.500000 -55.986883
97.473399 64.000000 -52.791443
100.479185 64.500000 -48.833219
104.626194 66.000000 -46.058220
110.586096 68.500000 -42.982152
125.222713 76.500000 -43.313072
118.704963 71.500000 -35.297052
124.145062 74.000000 -31.874811
127.121434 75.000000 -26.742121
137.428555 80.500000 -23.540227
142.626656 83.000000 -18.017687
156.144563 90.500000 -13.770457
154.003458 89.000000 -6.777527
158.482649 91.500000 0.000000
163.598036 94.500000 5.141277
178.839259 103.500000 12.380205
189.563628 110.000000 19.121480
194.712599 113.500000 27.087893
202.932537 119.000000 36.074721
215.816448 127.500000 46.818916
236.546565 141.000000 60.734853
242.390426 146.000000 72.075525
259.186729 158.000000 87.830745
278.348483 172.000000 106.179667
281.321274 176.500000 119.645689
275.044712 175.500000 129.426259
267.663738 174.000000 138.506762
263.760412 175.000000 149.350076
257.206986 174.500000 158.730325
258.234828 179.500000 173.134409
243.118325 173.500000 176.635868
236.288143 173.500000 185.673540
231.103066 175.000000 196.128461
222.256172 175.000000 206.099961
213.105561 174.000000 213.105654
212.577288 180.500000 229.241459
198.369826 177.000000 233.744331
185.363110 180.263326 235.893303
175.311527 180.778364 244.511864
166.916969 181.808440 252.375546
155.218108 181.293402 258.735466
149.485464 186.443783 271.913243
134.518718 180.263326 268.160116
121.897570 179.233250 272.250665
108.023779 173.567831 267.906833
76.944020 136.485090 213.720467
65.435808 132.364785 210.349040
57.237634 131.849747 211.838376
46.521414 124.639214 202.150499
38.548034 123.609138 202.076298
36.168212 150.906156 248.532076
27.780507 156.571575 259.093777
18.765017 163.267070 271.073308
7.302170 174.597907 290.487950
-3.683880 176.143022 293.128069
-15.461475 184.898669 307.334386
-28.540053 195.199430 323.610333
-44.545363 203.440040 335.637991
-22.141995 78.800825 129.263924
-29.439609 83.436168 135.704515
-31.762220 76.740673 123.705418
-34.691966 73.135407 116.669104
-38.667346 71.075254 111.790628
-42.542751 70.560216 109.454877
-46.278060 69.015102 105.124958
-53.891601 73.135407 109.137105
-53.476329 67.469988 98.737445
-56.883992 66.439912 94.820618
-59.480679 65.409836 91.173474
-62.932420 64.894797 87.773434
-65.670538 64.379759 84.661839
-74.875810 69.530140 88.227959
-72.359201 64.379759 79.021469
-75.157542 63.864721 75.157443
-77.936839 63.864721 72.271339
-81.039105 63.864721 68.774711
-85.339221 64.894797 66.195790
-93.346439 69.015102 66.928006
-91.891454 65.924874 59.948909
-94.085649 65.924874 56.442907
-97.983794 66.954950 53.067983
-101.764219 67.985026 49.457860
-106.694049 70.045178 46.968637
-115.047521 74.165483 44.716317
-115.030989 73.135407 39.787987
-119.729123 75.195559 36.422041
-122.044984 75.710597 31.335721
-126.490047 77.770749 27.440456
-134.333128 81.891054 23.010131
-142.868606 86.526397 18.048380
-143.447341 86.526397 12.650810
-151.526992 91.161739 7.622867
-156.858521 94.251968 0.985446
-163.638164 98.372272 -5.142682
-177.784245 107.127920 -13.430236
-195.888938 118.458757 -22.249643
-198.107682 120.518910 -31.377362
-209.398680 128.244481 -41.310360
-222.706846 137.515166 -52.727980
-237.490110 148.330966 -67.382284
-258.422930 163.267070 -83.966976
-265.720062 170.477603 -99.454691
-268.109871 174.597907 -112.043152
-263.696443 174.597907 -122.068655
-257.313020 174.082869 -133.150909
-252.857601 174.597907 -143.176829
-250.199353 176.658060 -154.406003
-241.041612 175.112945 -163.812080
-233.315671 174.082869 -171.764235
-226.676066 174.082869 -180.435904
-218.523426 174.082869 -190.227934
-211.198432 174.082869 -198.328962
-203.573312 174.082869 -206.148153
-196.237777 174.597907 -214.306570
-185.524308 173.567831 -221.413503
-175.609756 173.567831 -229.356538
-167.335564 174.082869 -236.512079
-158.302481 174.082869 -242.650941
-151.690201 177.173098 -252.855248
-137.976645 174.082869 -254.757924
-127.517699 173.052793 -258.240135
-118.394533 174.082869 -264.427474
-106.100276 170.477603 -263.137072
-86.725436 156.571575 -245.723504
-72.819409 147.300889 -234.084988
-56.342066 132.879823 -213.851640
-45.250177 124.639214 -202.438850
-33.755168 115.883567 -189.885722
-25.393272 110.733186 -182.533129
-16.052428 102.492577 -169.819290
-9.737390 103.522653 -172.015242
-1.970923 94.251968 -156.849233
3.812904 91.161739 -151.670693
8.880815 84.981282 -141.153508
14.804329 83.436168 -138.069684
19.257028 80.345940 -132.324211
25.162619 83.436168 -136.562251
28.643569 76.740673 -124.464513
31.525621 72.620369 -116.676550
35.586171 70.560216 -111.910144
38.907732 69.015102 -108.069904
42.970667 67.985026 -104.668802
48.305884 70.045178 -106.095309
49.579930 66.439912 -98.836070
53.042308 65.409836 -95.063489
55.696438 64.379759 -91.532253
58.633879 63.864721 -88.653063
61.971254 63.349683 -85.295846
69.378919 67.469988 -88.291372
68.220253 63.349683 -80.385414
71.105841 62.834645 -76.679637
74.408537 62.834645 -73.479092
77.125109 62.834645 -70.622411
80.155660 62.834645 -67.163067
92.559346 70.045178 -70.869178
87.467512 64.379759 -61.884416
90.103867 64.379759 -57.978786
93.700679 65.409836 -55.414224
97.559068 66.439912 -52.047732
101.299724 67.469988 -48.447566
118.000472 77.255711 -51.063134
109.720111 70.560216 -41.853949
114.466924 72.620369 -38.789243
120.177381 75.195559 -34.914538
124.927694 77.255711 -30.407670
132.704200 81.376016 -27.046983
148.157516 90.131663 -23.465585
141.380754 85.496320 -16.058065
147.868656 89.101587 -11.169951
155.893614 93.736930 -5.879564
159.429971 95.797082 1.001742
172.124011 103.522653 7.575297
178.638988 107.642958 13.494648
188.223738 113.823415 21.378839
196.606067 119.488833 29.874292
213.022079 130.304633 40.636147
219.692462 135.455014 50.558493
233.353183 145.240737 63.050934
249.635986 157.086613 77.657392
265.930906 169.447527 93.857813
275.752993 178.203174 109.178367
262.812446 172.537755 115.695035
258.265143 172.537755 125.518282
253.350830 172.537755 135.163161
251.779126 175.112945 146.774413
241.958378 171.507679 151.427406
236.788078 172.022717 160.921070
230.554688 172.022717 169.731319
223.323026 171.507679 177.766538
216.584035 172.537755 188.539330
212.432904 176.143022 202.014597
201.077329 173.052793 206.195632
191.245954 172.537755 214.197825
183.036911 172.537755 221.253728
175.088860 173.052793 228.675801
165.355760 173.567831 236.855822
159.557947 177.173098 247.965633
145.479235 173.567831 249.557609
135.969993 173.567831 254.863432
126.642212 174.082869 260.578021
115.062612 174.082869 265.894246
103.096069 170.992641 265.248407
74.552665 139.575318 220.003706
61.810151 130.304633 207.868246
51.160448 123.609138 199.257094
42.526469 124.124176 202.152636
35.600671 126.699366 207.836144
34.282787 156.571575 258.313826
25.490524 162.752032 269.662770
13.910777 166.357298 276.515351
3.618997 173.052793 287.985475
-7.560919 180.778364 300.770703
-19.698988 188.503935 313.104162
-33.550600 200.864849 332.607381
-49.253255 205.500192 338.444660
-23.919907 79.315864 129.818457
-29.027935 77.770749 126.135203
-34.088232 76.740673 123.084774
-36.884834 73.135407 115.994488
-40.069059 71.075254 111.295906
-45.900387 72.620369 111.805351
-47.950601 69.530140 105.315239
-51.117202 68.500064 101.900799
-54.712846 67.469988 98.057663
-57.478641 66.439912 94.461336
-63.008352 67.985026 93.978635
-67.009486 68.500064 92.230526
-67.263051 64.894797 84.500575
-70.400102 64.894797 81.905378
-73.346475 64.379759 78.105961
-76.238189 64.379759 75.286022
-82.017836 66.439912 74.160722
-88.696771 69.530140 74.319866
-86.434037 65.409836 66.179382
-89.566677 65.924874 63.369720
-92.987139 66.439912 59.834189
-95.176231 66.439912 56.286972
-106.996274 75.778455 57.082600
-102.969791 71.539101 50.043774
-105.070543 71.539101 45.467989
-110.661792 74.188697 43.011685
-116.461844 76.838293 39.465373
-119.492297 77.898132 35.531281
-132.456983 85.317002 33.123359
-130.291759 83.197324 27.409172
-133.881160 84.787082 22.067750
-139.665938 87.966598 17.643791
-143.687519 90.086275 11.762647
-151.653814 94.855548 6.674256
-167.065475 104.394095 -0.000147
-167.794210 104.924014 -6.328841
-180.121032 112.872803 -13.606763
-189.452725 119.231834 -22.725200
-200.821682 127.180623 -33.101979
-214.388726 136.719170 -43.696027
-235.296152 151.556910 -58.840666
-241.869376 157.386021 -70.269801
-257.822273 170.104084 -87.368624
-260.684987 174.343438 -99.441959
-255.971376 173.813519 -108.864665
-249.407154 172.753680 -119.282176
-253.742795 179.112711 -133.331282
-239.713415 172.753680 -137.730333
-232.914267 171.693842 -145.767517
-226.279898 171.693842 -155.867355
-220.244449 171.693842 -164.285140
-212.151333 171.163922 -173.273552
-213.103435 177.522954 -187.876360
-199.110982 171.693842 -189.346353
-190.593224 171.693842 -197.917780
-182.433433 171.163922 -204.328055
-175.143211 171.693842 -211.712259
-165.492631 170.104084 -216.142985
-160.683677 175.403276 -230.163956
-148.223415 171.163922 -230.351321
-139.436112 171.163922 -235.774219
-128.535538 170.634003 -240.928729
-119.363559 170.634003 -245.602072
-110.021959 170.634003 -249.926400
-101.999023 175.933196 -262.426580
-85.105247 162.685214 -246.047999
-67.436821 147.847475 -226.791533
-54.623089 137.249089 -212.743991
-42.597605 129.300300 -202.491670
-32.930898 121.881431 -192.251067
-25.438376 120.821592 -191.674286
-15.272694 108.633449 -173.177708
-8.308656 103.334257 -165.160521
-1.981921 98.564983 -157.724494
3.814965 94.855548 -151.752664
9.839316 89.026436 -142.131916
16.557619 91.676033 -145.774999
21.148345 87.966598 -139.178393
26.262464 84.787082 -133.121875
29.111986 78.957970 -122.959876
32.820295 76.838293 -118.506139
36.950800 74.718616 -113.722323
43.841236 79.487890 -119.413657
43.801800 72.069020 -106.693293
47.738037 71.009181 -103.125050
50.820908 69.949343 -99.741289
55.783704 71.539101 -99.976674
58.189715 69.949343 -95.629736
61.393586 68.889504 -91.569994
63.852059 67.299747 -86.733261
66.547529 66.769827 -83.601534
69.651203 66.769827 -81.033944
73.146757 66.769827 -77.893146
76.030592 66.769827 -75.080885
84.290500 71.009181 -76.215535
82.553021 67.299747 -69.171836
85.514543 67.299747 -65.475240
88.613853 67.829666 -62.695467
91.624159 68.359585 -59.774414
95.623625 69.419424 -56.551446
107.381258 76.308374 -58.157524
102.969835 71.539101 -50.043683
108.183786 73.658778 -46.815093
110.929893 74.188697 -42.315434
116.461878 76.838293 -39.465270
123.785096 80.547728 -35.962669
130.811583 84.257163 -32.711774
130.461427 83.197324 -26.589874
137.228209 86.906759 -22.619324
143.984116 90.616194 -17.270772
148.758854 93.265791 -12.177668
156.777434 98.035064 -5.912897
160.281090 100.154741 0.000000
170.336552 106.513772 6.424582
182.657960 114.462561 13.798247
192.119680 120.821592 21.821349
207.090783 130.890058 31.467444
210.755787 134.069574 40.203828
222.313879 142.548282 51.161767
236.601423 153.146667 63.928593
261.039651 171.163922 83.007303
256.704118 170.104084 90.601305
253.106942 170.104084 100.212158
248.373918 169.574165 109.338920
244.076437 169.574165 118.622493
241.676785 171.163922 128.935035
234.447535 169.574165 136.670978
228.413767 169.044245 144.955835
221.124080 168.514326 154.373130
219.208020 171.693842 165.665533
210.181038 169.574165 171.664015
202.925518 169.044245 178.902983
195.474103 169.574165 188.240479
187.008484 169.574165 196.653069
179.463718 169.574165 203.561727
174.882621 172.753680 214.122009
165.154123 171.163922 218.531525
154.423843 170.104084 224.184918
145.864548 170.104084 229.845892
137.097971 170.104084 235.180244
126.624953 170.104084 240.980750
117.818266 170.634003 246.347099
107.536714 171.693842 252.849916
97.023581 170.104084 254.346271
82.541142 163.745053 248.707695
58.439603 130.890058 201.150703
49.993729 128.770381 199.919524
44.169012 134.069574 209.960586
34.343028 131.949897 208.352541
32.524211 162.155295 257.456474
23.542534 167.454487 266.947080
13.975830 173.813519 277.808454
3.655089 181.762308 290.857532
-9.802863 195.010289 311.927702
-23.955429 198.719724 317.114504
-36.943303 204.548836 325.255232
-49.048588 204.018917 322.793305
-25.769928 83.197324 130.625863
-29.698023 80.547728 125.435605
-36.573333 83.727244 128.903607
-37.736885 76.308374 116.141980
-40.918388 74.188697 111.452782
-44.767920 73.658778 109.046860
-48.450453 72.069020 104.664272
-51.590832 71.009181 101.252566
-58.917825 74.718616 104.051998
-57.898591 68.889504 93.818918
-61.490967 68.359585 90.481092
-63.851983 67.299747 86.733318
-67.603736 67.299747 83.841988
-70.158905 66.769827 80.594777
-78.309875 71.009181 82.348404
-76.500769 66.769827 74.601759
-79.258168 66.769827 71.665424
-82.985948 67.299747 68.651851
-86.187828 67.829666 65.990869
-88.613798 67.829666 62.695545
-100.555811 74.718616 64.704383
-95.623575 69.419424 56.551530
-99.514017 70.479262 53.090809
