# .PCD v.7 - Point Cloud Data file format
VERSION .7
FIELDS x y z
SIZE 4 4 4
TYPE F F F
COUNT 1 1 1
WIDTH 1453
HEIGHT 1
VIEWPOINT 0 0 0 1 0 0 0
POINTS 1453
DATA ascii
-147.441257 254.414429 -59.450602
-147.811884 254.414429 -58.523033
-147.682753 253.566381 -57.401177
-149.525854 256.110525 -57.038742
-155.836832 266.287102 -58.327188
-158.190047 269.679295 -58.077425
-149.577201 254.414429 -53.851271
-149.912604 254.414429 -52.910393
-150.565642 254.414429 -51.022407
-156.918581 264.591006 -52.078389
-159.258631 267.983198 -51.746437
-154.025597 258.654669 -48.978338
-151.800290 254.414429 -47.222563
-152.093999 254.414429 -46.267848
-152.381705 254.414429 -45.311306
-160.296564 267.135150 -46.570624
-160.076213 266.287102 -45.417895
-161.890508 268.831246 -44.835527
-152.960685 253.566381 -41.329403
-153.729777 254.414429 -40.502521
-153.467955 253.566381 -39.404029
-161.674284 266.287102 -39.352321
-161.918349 266.287102 -38.335721
-155.958976 256.110525 -35.891457
-154.629938 253.566381 -34.564039
-154.844057 253.566381 -33.591794
-155.570631 254.414429 -32.727315
-163.768081 267.135150 -32.308314
-163.447313 266.287102 -31.179400
-156.865087 255.262477 -28.903498
-156.521856 254.414429 -27.824573
-156.859143 254.414429 -25.855515
-156.495106 253.566381 -24.786538
-166.078054 268.831246 -25.235710
-167.806521 271.375391 -24.420663
-162.183138 262.046862 -22.562627
-165.473578 267.135150 -21.961476
-166.788777 268.831246 -20.006618
-167.964257 270.527343 -19.077875
-173.876700 279.855872 -18.643609
-176.099383 283.248064 -17.763484
-166.711304 267.983198 -15.759010
-165.751289 266.287102 -14.618119
-165.311713 265.439054 -13.533154
-164.865067 264.591006 -12.454292
-172.341221 276.463679 -11.930529
-172.412780 276.463679 -10.847448
-162.425162 260.350766 -9.194875
-161.421228 258.654669 -8.120901
-156.934694 261.436027 -6.906943
-156.460321 260.578859 -5.901351
-163.215505 271.722034 -4.103062
-163.238063 271.722034 -3.077474
-155.529216 258.864525 -1.954678
-156.044213 259.721692 -1.961150
-155.026461 258.007358 -0.000136
-154.508373 257.150190 0.970682
-162.224186 270.007700 2.038534
-161.178282 268.293365 3.038358
-153.432879 255.435856 3.856867
-153.405617 255.435856 4.820832
-153.886971 256.293023 5.804018
-155.391086 258.864525 6.838732
-160.488926 267.436198 8.073715
-161.463459 269.150532 9.140148
-153.178494 255.435856 9.637041
-153.045300 255.435856 11.561128
-152.969639 255.435856 12.522506
-153.400986 256.293023 13.528635
-161.004241 269.150532 15.219243
-160.905438 269.150532 16.230556
-152.606638 255.435856 16.362694
-152.500816 255.435856 17.321221
-152.388974 255.435856 18.279064
-152.782093 256.293023 19.300736
-159.295104 267.436198 21.141190
-161.199628 270.864867 22.425514
-151.371824 254.578688 22.028671
-150.721233 253.721521 22.901956
-150.065665 252.864354 23.767938
-150.421546 253.721521 24.794117
-157.369816 265.721863 26.956121
-160.239869 270.864867 28.485225
-148.914470 252.007186 27.438270
-148.739132 252.007186 28.373379
-148.370847 252.007186 30.240202
-148.681921 252.864354 31.277867
-154.019097 262.293194 33.412544
-157.324562 268.293365 35.166071
-145.556376 248.578517 33.497196
-144.841852 247.721350 34.292427
-144.623529 247.721350 35.201813
-145.898453 250.292852 36.484651
-151.652622 260.578859 38.937645
-149.412807 257.150190 39.364867
-141.704397 244.292681 38.287728
-142.203045 246.007015 40.346529
-141.452147 245.149848 41.095525
-143.165847 248.578517 42.570660
-147.330233 256.293023 44.818400
-146.553932 255.435856 45.590225
-139.393098 243.435513 44.325105
-139.601676 244.292681 45.359212
-139.313922 244.292681 46.235454
-140.971835 247.721350 47.771063
-143.589362 252.864354 49.666023
-142.788792 252.007186 50.395821
-145.376867 257.150190 52.338764
-136.507595 242.578346 51.092295
-135.702665 241.721179 51.765418
-138.255050 246.864183 53.736548
-143.535625 256.293023 55.788985
-144.618872 258.864525 57.258533
-133.747520 240.006844 53.928801
-133.534500 240.864011 55.803810
-132.707286 240.006844 56.440153
-132.822724 240.864011 57.477404
-139.529726 253.721521 61.423491
-133.500186 243.435513 59.773331
-131.149831 239.149677 58.720983
-130.309550 238.292510 59.330439
-129.934196 238.292510 60.148022
-133.281877 245.149848 62.717568
-138.925418 256.293023 66.442566
-134.336154 248.578517 65.287965
-127.919831 237.435342 63.166249
-127.980786 238.292510 64.199675
-128.033786 239.149677 65.236352
-131.280764 246.007015 67.933125
-134.042835 252.007186 70.433632
-128.599093 242.578346 68.607721
-126.353956 239.149677 68.433252
-126.372817 240.006844 69.473922
-126.372817 240.006844 69.473922
-129.981680 247.721350 72.525138
-133.557030 255.435856 75.624358
-125.934041 241.721179 72.356680
-124.587020 240.006844 72.627744
-124.128230 240.006844 73.409108
-124.128230 240.006844 73.409108
-128.522790 249.435685 77.102087
-129.795752 252.864354 78.978994
-123.599121 241.721179 76.276661
-122.680837 240.864011 76.778513
-121.761144 240.006844 77.271848
-121.706349 240.864011 78.314064
-126.819555 252.007186 82.735593
-129.304289 258.007358 85.519614
-125.769883 252.007186 84.322681
-120.125850 241.721179 81.637319
-119.186389 240.864011 82.098310
-119.090508 241.721179 83.140379
-121.929342 248.578517 86.266774
-126.826301 259.721692 90.932569
-117.502285 241.721179 85.370281
-117.378336 242.578346 86.412223
-116.833078 242.578346 87.148022
-116.694103 243.435513 88.190913
-119.818103 251.150019 91.740341
-124.122841 261.436027 96.279407
-115.011111 243.435513 90.374748
-114.843964 244.292681 91.416355
-113.866377 243.435513 91.812847
-113.686155 244.292681 92.852272
-119.450009 258.007358 98.817503
-119.616313 259.721692 100.227643
-112.308525 245.149848 95.311842
-112.488621 246.864183 96.687049
-111.101965 245.149848 96.715590
-111.264766 246.864183 98.092952
-116.793250 260.578859 104.278448
-116.899799 262.293194 105.701075
-110.155795 248.578517 100.868338
-109.142196 247.721350 101.208270
-108.504135 247.721350 101.892028
-108.235015 248.578517 102.926684
-113.892951 263.150361 109.678088
-115.782723 269.150532 112.908600
-107.008716 250.292852 105.672244
-106.706837 251.150019 106.706696
-106.034277 251.150019 107.375044
-105.717113 252.007186 108.407888
-111.107271 266.579031 115.376752
-111.058941 270.007700 118.265606
-103.659829 253.721521 111.785642
-103.659829 253.721521 111.785642
-103.303240 254.578688 112.814592
-102.220472 255.435856 114.487985
-106.608125 268.293365 120.923025
-107.537078 272.579202 123.532812
-100.715831 257.150190 117.175514
-100.310871 258.007358 118.198700
-99.566231 258.007358 118.826635
-99.145959 258.864525 119.846722
-103.277957 271.722034 126.450780
-103.451265 274.293536 128.300007
-97.831700 261.436027 122.903061
-97.375773 262.293194 123.920294
-96.437112 264.007529 125.952008
-95.954365 264.864696 126.966345
-99.465940 276.865038 133.346456
-100.152862 281.150875 136.042603
-94.149665 266.579031 129.585729
-93.033492 265.721863 129.756159
-91.918907 264.864696 129.917695
-91.395625 265.721863 130.914977
-92.616421 271.722034 134.455698
-90.322315 267.436198 132.905077
-84.609659 252.864354 126.197560
-83.246834 251.150019 125.867520
-82.735761 252.007186 126.819446
-82.773397 254.578688 128.636139
-85.275181 264.864696 134.372007
-87.161557 273.436369 139.271014
-79.522646 252.007186 128.858553
-78.443713 251.150019 128.915677
-77.632169 251.150019 129.406005
-77.341912 252.864354 130.777855
-80.409470 265.721863 137.935523
-78.162270 264.007529 138.038706
-73.529120 251.150019 131.780637
-72.203428 249.435685 131.337368
-71.867353 251.150019 132.694203
-72.001921 254.578688 134.960790
-73.548229 263.150361 139.969802
-73.140729 264.864696 141.344001
-68.510038 251.150019 134.458330
-67.663864 251.150019 134.886135
-66.815020 251.150019 135.308614
-66.864063 254.578688 137.578663
-67.553832 260.578859 141.248497
-65.568550 256.293023 139.340058
-63.826320 252.864354 137.879728
-62.745322 252.007186 137.809298
-61.878208 252.007186 138.200815
-62.509618 254.578688 139.611028
-64.743874 267.436198 147.071788
-64.841255 271.722034 149.839073
-59.060772 251.150019 138.868618
-58.187075 251.150019 139.236964
-57.311080 251.150019 139.599814
-55.741936 252.007186 140.787835
-58.214791 267.436198 149.776227
-55.229417 253.721521 142.095395
-52.897863 251.150019 141.331115
-51.831310 250.292852 141.177206
-51.292177 252.007186 142.469262
-51.938744 259.721692 147.159809
-53.201773 270.864867 153.810907
-48.928338 253.721521 144.386314
-47.533481 251.150019 143.224426
-46.632642 251.150019 143.520258
-45.886038 252.007186 144.301246
-46.508347 260.578859 149.504621
-46.317544 264.864696 152.257604
-43.304829 252.864354 145.634166
-41.330783 252.007186 145.671357
-40.414693 252.007186 145.928169
-39.497007 252.007186 146.179220
-40.571756 258.864525 150.156886
-39.962525 267.436198 155.643428
-36.734740 252.007186 146.897709
-35.811035 252.007186 147.125619
-34.885916 252.007186 147.347721
-33.959421 252.007186 147.564006
-34.267460 261.436027 153.303441
-34.395475 270.007700 158.549025
-31.384090 253.721521 149.185886
-30.240397 252.007186 148.370807
-29.307565 252.007186 148.557883
-28.373576 252.007186 148.739094
-28.465075 261.436027 154.486062
-27.674143 263.150361 155.676039
-25.565035 252.007186 149.247469
-24.626786 252.007186 149.405152
-23.687566 252.007186 149.556936
-22.747410 252.007186 149.702817
-22.770583 263.150361 156.468488
-22.283792 269.150532 160.179348
-19.921704 252.007186 150.104976
-18.978179 252.007186 150.227184
-18.033905 252.007186 150.343461
-17.088919 252.007186 150.453803
-16.692349 260.578859 155.679233
-16.282458 270.007700 161.417854
-14.201594 251.150019 150.236422
-13.302603 252.007186 150.835734
-12.354618 252.007186 150.916339
-11.328552 250.292852 149.963836
-10.919615 263.150361 157.739181
-10.154679 269.150532 161.402830
-8.558173 252.007186 151.179151
-7.582245 251.150019 150.715551
-5.707161 252.007186 151.313603
-5.707161 252.007186 151.313603
-4.966636 263.150361 158.038666
-4.038274 267.436198 160.641129
-2.854121 252.007186 151.394293
-1.902832 252.007186 151.409238
-0.951468 252.007186 151.418205
-0.000067 252.007186 151.421194
0.999872 264.864696 159.143624
2.012719 266.579031 160.164195
2.853987 252.007186 151.394296
3.818106 252.864354 151.888251
4.772367 252.864354 151.861263
5.726439 252.864354 151.828280
6.974671 264.007529 158.478323
8.047908 266.579031 159.974534
8.558040 252.007186 151.179158
9.540091 252.864354 151.636425
10.528225 253.721521 152.087298
10.528225 253.721521 152.087298
11.755175 259.721692 155.613169
14.071661 266.579031 159.557541
14.346869 253.721521 151.774692
15.300208 253.721521 151.681553
15.248519 252.864354 151.169115
16.307852 254.578688 152.094528
18.483790 272.579202 162.735762
18.953864 264.864696 158.014062
19.042598 252.864354 150.738177
20.057093 253.721521 151.126116
19.989332 252.864354 150.615554
21.148178 255.435856 152.017362
23.141300 267.436198 159.016856
24.758943 274.293536 162.941863
23.848573 253.721521 150.574351
24.794183 253.721521 150.421535
25.738814 253.721521 150.262781
26.862716 255.435856 151.112270
29.024906 266.579031 157.525158
30.400119 270.007700 159.363342
29.407119 252.864354 149.063208
30.343125 252.864354 148.875496
31.383959 253.721521 149.185914
32.429888 254.578688 149.489109
34.829084 265.721863 155.816643
34.767845 258.007358 151.077465
35.004446 252.864354 147.848934
36.054517 253.721521 148.126505
36.859558 252.864354 147.397393
39.364932 257.150190 149.412790
41.780712 266.579031 154.631797
41.239352 257.150190 148.906331
41.471236 252.864354 146.166875
42.388805 252.864354 145.903420
43.451496 253.721521 146.127880
45.118254 258.007358 148.315699
47.426140 265.721863 152.455412
46.510209 255.435856 146.264569
46.950827 252.864354 144.499960
48.762913 252.864354 143.898565
49.666086 252.864354 143.589340
51.938615 259.721692 147.159855
54.432381 267.436198 151.191918
52.718707 254.578688 143.594671
53.078277 252.007186 141.813520
54.518961 254.578688 142.920867
55.229292 253.721521 142.095444
57.637792 260.578859 145.576588
59.706952 265.721863 148.077585
58.093359 254.578688 141.505664
58.981313 254.578688 141.137862
59.665367 253.721521 140.290534
60.545655 253.721521 139.912878
63.291161 261.436027 143.772156
65.035132 264.864696 145.251935
63.385458 254.578688 139.215571
64.042559 253.721521 138.347174
64.910550 253.721521 137.942054
65.553763 252.864354 137.066855
69.115253 263.150361 142.211002
72.059756 270.864867 145.930173
68.587483 254.578688 136.727644
69.211387 253.721521 135.835098
70.063492 253.721521 135.397551
70.673261 252.864354 134.498731
74.910966 264.864696 140.413817
78.244534 273.436369 144.469184
73.692041 254.578688 134.045420
74.532813 254.578688 133.579756
74.863097 252.864354 132.212463
76.777958 253.721521 131.706245
81.012255 264.864696 136.984333
82.666216 267.436198 137.797594
78.979051 252.864354 129.795717
79.522533 252.007186 128.858623
80.877067 253.721521 129.229601
81.687439 253.721521 128.718888
85.838961 264.007529 133.400515
89.208166 271.722034 136.740774
83.530842 252.007186 126.297175
84.322736 252.007186 125.769846
85.400796 252.864354 125.663529
85.896508 252.007186 124.700313
90.805862 264.007529 130.070444
93.406152 269.150532 132.020005
89.305844 252.864354 122.919017
90.076399 252.864354 122.355469
90.227511 251.150019 120.961416
90.985748 251.150019 120.392116
96.123894 263.150361 125.543158
95.963791 260.578859 123.715839
93.238789 251.150019 118.655788
94.623999 252.864354 118.873536
95.045746 252.007186 117.875715
95.784500 252.007186 117.276202
101.115638 264.007529 122.227871
102.873971 266.579031 122.774454
97.644700 251.150019 115.057292
98.365694 251.150019 114.441505
100.136605 252.007186 113.582738
101.534328 253.721521 113.719699
103.973984 258.007358 114.989626
108.520471 267.436198 118.512394
102.959327 252.007186 111.030424
103.654915 252.007186 110.381324
104.346411 252.007186 109.727866
105.033787 252.007186 109.070076
110.391579 263.150361 113.201531
111.824445 264.864696 113.238626
106.706743 251.150019 106.706790
107.741559 252.007186 106.396121
108.407934 252.007186 105.717065
109.354596 251.150019 103.991539
115.637529 264.007529 108.590914
116.317539 264.007529 107.862203
111.675096 252.007186 102.259723
112.315404 252.007186 101.556034
112.951278 252.007186 100.848335
114.355365 253.721521 100.817857
119.648178 264.007529 104.155356
121.081410 265.721863 104.072972
115.449936 252.007186 97.978009
116.063267 252.007186 97.250686
116.672017 252.007186 96.519524
118.472855 254.578688 96.761945
123.087863 263.150361 99.248503
123.306065 262.293194 98.152406
120.275621 254.578688 94.511726
119.646198 252.007186 92.807140
120.226957 252.007186 92.053554
123.025564 255.435856 91.767284
127.747364 264.007529 94.045924
127.085723 261.436027 92.333217
125.570516 257.150190 90.032357
123.611049 252.007186 87.456770
125.847339 255.435856 87.857675
131.486684 265.721863 90.571206
124.811536 251.150019 84.821863
125.342020 251.150019 84.035979
126.297139 252.007186 83.530897
131.995788 262.293194 86.112672
132.967359 263.150361 85.560322
127.849130 252.007186 81.135553
127.919806 251.150019 80.057424
128.858588 252.007186 79.522589
135.515492 264.007529 82.459544
129.847698 252.007186 77.897068
130.334574 252.007186 77.079678
130.816304 252.007186 76.259246
137.098337 263.150361 78.771399
139.383274 266.579031 78.923529
131.780670 251.150019 73.529062
132.691394 252.007186 72.947735
133.147116 252.007186 72.112576
139.504957 263.150361 74.426166
138.146123 259.721692 72.589885
134.482672 252.007186 69.590149
134.458360 251.150019 68.509979
139.950150 260.578859 70.204084
144.082924 267.436198 71.147671
136.602193 252.007186 65.331607
136.543964 251.150019 64.252733
137.412367 252.007186 63.609899
144.840413 264.864696 65.946551
145.251906 264.864696 65.035195
138.115520 251.150019 60.801077
138.494816 251.150019 59.932077
142.660279 258.007358 60.673290
148.741221 268.293365 62.158823
140.552739 252.864354 57.702220
140.912516 252.864354 56.817968
141.266730 252.864354 55.931472
149.776253 267.436198 58.214725
144.845703 258.007358 55.253287
143.260573 254.578688 53.619955
144.561615 256.293023 53.073778
144.892232 256.293023 52.164429
154.930648 273.436369 54.681316
148.943496 262.293194 51.518107
149.752043 263.150361 50.746555
147.623832 258.864525 48.993489
155.590140 271.722034 49.475694
151.963599 264.864696 47.273220
146.344707 254.578688 44.518740
147.115211 255.435856 43.745152
148.376340 257.150190 43.107324
155.580993 269.150532 44.142333
145.928187 252.007186 40.414629
146.179238 252.007186 39.496943
145.926475 251.150019 38.446481
152.650302 262.293194 39.193948
152.630335 261.436027 37.150837
146.345371 250.292852 34.648533
146.560184 250.292852 33.728340
146.769211 250.292852 32.806815
155.025728 264.007529 33.631063
149.689906 254.578688 31.490052
147.361495 250.292852 30.034616
148.052597 251.150019 29.207814
155.316006 263.150361 29.628121
156.005610 264.007529 28.744991
148.069730 250.292852 26.321921
147.724547 249.435685 25.304102
148.388801 250.292852 24.459192
156.678706 264.007529 24.815476
153.267180 258.007358 23.288948
148.823458 250.292852 21.657949
149.083862 250.292852 19.786117
154.825984 259.721692 19.559076
158.525426 265.721863 19.015273
149.430315 250.292852 16.972603
149.021904 249.435685 15.978466
149.631795 250.292852 15.093515
156.389457 261.436027 14.783160
154.940114 258.864525 13.664511
149.889703 250.292852 12.270507
149.963841 250.292852 11.328486
154.656336 258.007358 10.706134
160.374790 267.436198 10.089929
150.201167 250.292852 7.556301
150.760220 251.150019 6.635062
157.489671 262.293194 5.940037
155.464748 258.864525 4.885678
150.316909 250.292852 4.723900
150.343623 250.292852 3.779344
157.573653 262.293194 2.970546
150.379244 250.292852 1.889821
150.903177 251.150019 0.948165
151.936232 252.864354 0.000000
159.658653 265.721863 -1.002897
156.044219 259.721692 -1.960739
149.849460 249.435685 -2.824667
149.828754 249.435685 -3.766138
149.769599 249.435685 -5.648595
150.760231 251.150019 -6.634796
157.963792 263.150361 -6.951817
154.830669 258.007358 -7.788929
150.150740 250.292852 -8.499624
149.004461 248.578517 -10.314618
149.450287 249.435685 -11.289427
151.943008 253.721521 -12.438329
155.966232 260.578859 -13.754730
158.440492 264.864696 -14.976759
149.119384 249.435685 -15.041562
149.021932 249.435685 -15.978204
149.430345 250.292852 -16.972340
151.877618 254.578688 -18.217591
157.380903 264.007529 -19.881556
151.636703 254.578688 -20.124653
148.446511 249.435685 -20.651213
148.175286 249.435685 -22.514968
148.030897 249.435685 -23.445530
150.929749 254.578688 -24.877748
155.339261 262.293194 -26.608164
155.676100 263.150361 -27.673800
146.888447 248.578517 -27.064831
147.727326 250.292852 -28.180233
147.042050 249.435685 -29.008185
150.389525 255.435856 -30.651501
154.226021 262.293194 -32.444025
148.482491 252.864354 -32.211309
145.261365 247.721350 -32.469503
145.556406 248.578517 -33.497068
145.844249 249.435685 -34.529617
150.128263 257.150190 -36.541542
155.891532 267.436198 -38.983463
149.910885 258.007358 -39.495951
144.190473 248.578517 -38.959316
143.942840 248.578517 -39.864517
144.185005 249.435685 -40.908724
143.925123 249.435685 -41.813851
154.026745 267.436198 -45.800022
143.881068 250.292852 -43.769013
143.111429 249.435685 -44.519188
143.319705 250.292852 -45.573573
142.540700 249.435685 -46.314017
148.112739 259.721692 -49.155458
154.142260 270.864867 -52.233967
141.642430 249.435685 -48.992460
140.846132 248.578517 -49.710039
140.046426 247.721350 -50.419553
139.726868 247.721350 -51.298490
146.154823 259.721692 -54.702930
151.582814 270.007700 -57.822940
138.735149 247.721350 -53.923011
138.393605 247.721350 -54.793640
138.046597 247.721350 -55.662105
137.217688 246.864183 -56.332774
140.187516 252.864354 -58.583948
147.399934 266.579031 -62.688755
136.604206 247.721350 -59.113652
136.230089 247.721350 -59.970789
135.850595 247.721350 -60.825559
135.465738 247.721350 -61.677927
142.086373 260.578859 -65.773251
146.330513 269.150532 -68.857620
134.743773 248.578517 -64.442504
133.409755 246.864183 -64.837586
133.461543 247.721350 -65.902576
132.584470 246.864183 -66.508899
139.506410 260.578859 -71.081780
143.173860 268.293365 -74.087220
131.763255 247.721350 -69.235665
131.325637 247.721350 -70.062186
130.882834 247.721350 -70.885941
129.983532 246.864183 -71.458777
134.479382 256.293023 -75.034540
140.326312 267.436198 -78.296912
129.523493 247.721350 -73.340286
129.060128 247.721350 -74.152654
128.146715 246.864183 -74.702709
128.118133 247.721350 -75.768574
134.264428 260.578859 -80.546392
138.155552 269.150532 -84.065655
126.667253 247.721350 -78.169942
126.173600 247.721350 -78.964267
125.674965 247.721350 -79.755476
125.171369 247.721350 -80.543536
133.290017 264.864696 -86.956680
129.407784 257.150190 -84.423961
135.748103 270.864867 -89.781270
122.775434 246.007015 -82.314890
122.681793 246.864183 -83.374175
121.731368 246.007015 -83.851192
125.425186 254.578688 -87.562630
128.803642 261.436027 -89.921219
120.668079 246.007015 -85.374253
120.129278 246.007015 -86.130743
119.169060 245.149848 -86.581102
119.037471 246.007015 -87.633492
123.438563 256.293023 -92.075011
124.912081 260.578859 -94.401431
119.409248 250.292852 -91.427129
117.204599 246.864183 -90.912911
117.036035 247.721350 -91.965750
116.455891 247.721350 -92.699289
121.885223 260.578859 -98.278434
120.866420 259.721692 -98.716519
114.687966 247.721350 -94.877834
113.093984 246.864183 -95.978259
113.269878 248.578517 -97.358387
113.432862 250.292852 -98.744489
117.832569 261.436027 -103.883057
119.482662 266.579031 -106.679491
111.169505 249.435685 -100.519552
110.915580 250.292852 -101.563884
111.030560 252.007186 -102.959180
113.009590 258.007358 -106.122740
116.819269 268.293365 -111.089732
115.006009 265.721863 -110.749760
110.251796 256.293023 -107.514780
109.940557 257.150190 -108.567277
108.205723 256.293023 -109.573755
108.953449 259.721692 -111.726401
111.107372 266.579031 -115.376654
110.380251 266.579031 -116.072480
102.949972 250.292852 -109.630249
101.558712 248.578517 -109.519627
100.868580 248.578517 -110.155573
102.247041 253.721521 -113.079319
105.650793 264.007529 -118.329771
102.180413 257.150190 -115.900573
98.433798 247.721350 -111.650885
98.068504 248.578517 -112.655623
97.023016 247.721350 -112.878993
98.644679 253.721521 -116.235180
95.927699 248.578517 -114.484049
100.787555 263.150361 -121.830850
94.155715 247.721350 -115.281543
93.752811 248.578517 -116.271799
92.699648 247.721350 -116.455606
94.511885 254.578688 -120.275496
95.016995 258.007358 -122.494792
92.053712 252.007186 -120.226836
90.054363 248.578517 -119.159273
89.611835 249.435685 -120.135583
88.244548 247.721350 -119.866728
90.516990 256.293023 -124.585557
92.433390 264.007529 -128.918941
89.836713 258.864525 -126.974496
84.319941 245.149848 -120.779549
83.559401 245.149848 -121.306960
82.216573 243.435513 -120.977626
82.028455 245.149848 -122.347393
84.667541 255.435856 -128.015355
79.358898 241.721179 -121.643072
77.756934 239.149677 -120.839941
76.996144 239.149677 -121.326113
75.194990 238.292510 -121.845777
76.569742 245.149848 -125.835713
72.598107 234.863840 -121.014426
73.409381 240.006844 -124.128069
71.071703 234.863840 -121.917142
70.047692 234.006673 -121.914715
69.280301 234.006673 -122.352429
70.266847 240.006844 -125.933653
72.947910 252.007186 -132.691297
67.452404 235.721008 -124.542281
66.183693 234.006673 -124.054810
65.402932 234.006673 -124.468203
65.092993 235.721008 -125.791529
66.873395 245.149848 -131.245956
68.356788 253.721521 -136.267161
62.710454 235.721008 -126.996084
61.331882 236.578175 -128.238713
60.524928 236.578175 -128.621538
60.364668 239.149677 -130.401453
62.105184 249.435685 -136.403026
62.930682 256.293023 -140.551114
58.311106 240.864011 -132.458835
57.477697 240.864011 -132.822597
57.448310 244.292681 -135.076933
56.995651 246.007015 -136.385645
59.267217 259.721692 -144.364260
59.322005 264.007529 -147.122142
54.110024 248.578517 -139.215035
53.736852 246.864183 -138.254932
52.867115 246.864183 -138.589839
51.995291 246.864183 -138.919275
53.961494 260.578859 -146.978962
52.624535 263.150361 -149.102467
48.151094 245.149848 -139.208564
47.606074 246.864183 -140.483939
46.722453 246.864183 -140.780282
45.836988 246.864183 -141.071067
47.446919 260.578859 -149.209410
47.273420 264.864696 -151.963537
43.769456 250.292852 -143.880934
43.304957 252.864354 -145.634128
42.820137 255.435856 -147.387108
42.033818 256.293023 -148.148724
43.301594 270.007700 -156.351572
41.333455 270.007700 -156.883357
37.913294 253.721521 -147.661680
36.360023 249.435685 -145.398721
35.202131 247.721350 -144.623452
34.292746 247.721350 -144.841777
33.266498 246.864183 -144.552466
34.379947 262.293194 -153.806045
31.338227 246.007015 -144.455751
30.642027 247.721350 -145.657815
29.623374 246.864183 -145.342805
28.809265 247.721350 -146.031363
30.014363 266.579031 -157.339628
28.558540 262.293194 -154.992549
26.051683 247.721350 -146.548431
25.043428 246.864183 -146.201580
24.124328 246.864183 -146.356046
24.040563 246.007015 -145.847865
24.815683 264.007529 -156.678673
23.443895 259.721692 -154.285535
21.361458 246.864183 -146.784752
20.438766 246.864183 -146.916072
19.447507 246.007015 -146.531031
18.655551 247.721350 -147.672283
18.156718 253.721521 -151.366190
18.463419 258.007358 -153.923051
16.798422 247.721350 -147.895050
15.813934 246.864183 -147.485575
14.886949 246.864183 -147.582025
13.910906 246.007015 -147.159896
13.890952 263.150361 -157.505329
13.153187 268.293365 -160.669424
11.134699 246.007015 -147.395953
10.208369 246.007015 -147.463004
9.313976 246.864183 -148.038256
8.383647 246.864183 -148.093855
7.970554 264.007529 -158.431358
6.703198 253.721521 -152.303831
5.571406 246.007015 -147.710893
4.659385 246.864183 -148.257767
4.659385 246.864183 -148.257767
3.740712 247.721350 -148.798992
2.006528 265.721863 -159.649194
1.003389 265.721863 -159.658650
0.000196 246.864183 -148.330966
-0.935025 247.721350 -148.843067
-1.863738 246.864183 -148.319256
-2.795612 246.864183 -148.304619
-4.025049 266.579031 -160.126261
-4.739879 251.150019 -150.831699
-5.609838 247.721350 -148.740252
-6.521640 246.864183 -148.187528
-7.452595 246.864183 -148.143627
-8.645232 254.578688 -152.721811
-9.410602 249.435685 -149.580346
-10.385819 250.292852 -150.032074
-11.211901 247.721350 -148.423132
-12.144244 247.721350 -148.349756
-13.030861 246.864183 -147.757477
-14.492142 256.293023 -153.312962
-16.127106 267.436198 -159.880570
-15.978270 249.435685 -149.021925
-15.868453 247.721350 -147.997720
-16.739907 246.864183 -147.383347
-17.665607 246.864183 -147.275258
-19.300669 256.293023 -152.782102
-20.937840 264.864696 -157.763430
-20.438379 246.864183 -146.916126
-21.435241 247.721350 -147.294478
-23.284457 247.721350 -147.013492
-24.123941 246.864183 -146.356110
-26.173457 258.007358 -152.801026
-28.034440 266.579031 -157.704441
-26.971568 247.721350 -146.381923
-27.794267 246.864183 -145.703652
-28.808880 247.721350 -146.031439
-29.622991 246.864183 -145.342883
-32.019987 258.864525 -152.209981
-34.067623 267.436198 -157.039094
-32.469567 247.721350 -145.261351
-33.266117 246.864183 -144.552554
-34.173705 246.864183 -144.340685
-34.958139 246.007015 -143.622690
-37.734059 258.864525 -150.894992
-39.962251 267.436198 -155.643498
-37.790209 246.864183 -143.436312
-38.690694 246.864183 -143.196039
-39.589652 246.864183 -142.950113
-40.487047 246.864183 -142.698544
-42.676057 254.578688 -146.892633
-45.653295 266.579031 -153.533049
-42.869712 245.149848 -140.924589
-43.907303 246.007015 -141.144243
-44.793266 246.007015 -140.865580
-45.518306 245.149848 -140.091527
-48.506605 256.293023 -146.157434
-51.076952 264.864696 -150.727694
-49.367273 246.864183 -139.874757
-50.245152 246.864183 -139.561814
-50.943544 246.007015 -138.759878
-50.943544 246.007015 -138.759878
-55.803791 260.578859 -146.289422
-57.654772 264.864696 -148.336173
-54.414505 246.007015 -137.435840
-55.276961 246.007015 -137.091233
-56.137234 246.007015 -136.741213
-56.995291 246.007015 -136.385796
-61.277817 260.578859 -144.082223
-64.022809 268.293365 -147.948471
-59.555826 246.007015 -135.287294
-60.404680 246.007015 -134.910426
-61.251149 246.007015 -134.528232
-62.936801 246.007015 -133.747925
-67.775800 261.436027 -141.713249
-70.465912 268.293365 -144.990432
-65.446561 246.007015 -132.537904
-66.508958 246.864183 -132.584441
-67.340692 246.864183 -132.163938
-68.169768 246.864183 -131.738218
-73.068843 261.436027 -139.058075
-74.183552 262.293194 -139.050642
-70.150158 245.149848 -129.524157
-71.210713 246.007015 -129.532169
-71.772225 245.149848 -128.632421
-72.832798 246.007015 -128.627104
-76.718548 256.293023 -133.525843
-78.852919 260.578859 -135.265942
-74.982105 245.149848 -126.788154
-75.777253 245.149848 -126.314528
-76.569410 245.149848 -125.835915
-77.899513 246.864183 -126.228924
-83.336050 261.436027 -133.158953
-84.445356 259.721692 -131.234997
-81.047057 246.864183 -124.231437
-81.541904 246.007015 -123.290172
-82.601756 246.864183 -123.203187
-83.374229 246.864183 -122.681756
-88.818044 260.578859 -128.941898
-90.216100 262.293194 -129.225910
-85.969249 247.721350 -121.508934
-86.130796 246.007015 -120.129240
-87.186617 246.864183 -120.002372
-87.633545 246.007015 -119.037432
-93.922725 261.436027 -125.915550
-95.643610 264.007529 -126.555619
-89.861647 246.007015 -117.364529
-91.329360 246.007015 -116.226057
-92.378582 246.864183 -116.052889
-94.399073 250.292852 -117.073922
-99.042370 260.578859 -121.265275
-97.832559 255.435856 -118.259520
-95.265828 246.864183 -113.694755
-95.645051 246.007015 -112.701254
-96.687000 246.864183 -112.488664
-99.082705 251.150019 -113.821287
-104.564310 263.150361 -118.605196
-106.737308 264.864696 -118.045923
-100.172646 246.864183 -109.396144
-101.208222 247.721350 -109.142240
-101.539413 246.864183 -108.128733
-104.346314 252.007186 -109.727958
-107.177236 257.150190 -111.296090
-105.357340 251.150019 -108.039339
-104.224632 246.864183 -105.542889
-104.885716 246.864183 -104.885947
-105.542660 246.864183 -104.224864
-109.145310 253.721521 -106.436325
-112.340293 258.007358 -106.830997
-108.981281 250.292852 -103.636715
-108.128510 246.864183 -101.539651
-108.764364 246.864183 -100.858260
-109.775771 247.721350 -100.520709
-114.487940 255.435856 -102.220522
-114.355276 253.721521 -100.817958
-113.432602 250.292852 -98.744788
-113.269621 248.578517 -97.358686
-113.486417 247.721350 -96.311816
-114.089318 247.721350 -95.596863
-118.656148 256.293023 -98.161117
-122.860651 264.007529 -100.345829
-116.672777 249.435685 -94.076045
-116.455646 247.721350 -92.699597
-117.035793 247.721350 -91.966059
-118.018278 248.578517 -91.544562
-123.498356 258.864525 -94.558521
-127.377197 265.721863 -96.264953
-119.722785 248.578517 -89.303838
-119.866767 247.721350 -88.244495
-120.835528 248.578517 -87.792345
-121.508745 247.721350 -85.969517
-127.114180 258.007358 -88.742260
-127.245101 257.150190 -87.649666
-122.681573 246.864183 -83.374499
-123.630794 247.721350 -82.888839
-123.719574 246.864183 -81.826294
-124.231258 246.864183 -81.047330
-127.769866 252.864354 -82.216057
-134.806830 265.721863 -85.551212
-126.609977 248.578517 -79.237834
-126.667047 247.721350 -78.170276
-127.155702 247.721350 -77.372865
-129.004562 249.435685 -76.293265
-135.265769 260.578859 -78.853217
-140.670861 270.007700 -80.824198
-129.523299 247.721350 -73.340628
-129.981552 247.721350 -72.525367
-130.886005 248.578517 -71.955364
-131.335528 248.578517 -71.131568
-138.128745 261.436027 -74.810787
-141.322545 266.579031 -75.396013
-133.110339 249.435685 -68.880163
-133.081594 248.578517 -67.808629
-133.044656 247.721350 -66.740184
-133.923173 248.578517 -66.130966
-141.747683 262.293194 -68.890309
-144.500899 266.579031 -69.109412
-144.000230 264.864696 -67.761541
-135.542756 248.578517 -62.744578
-136.403053 249.435685 -62.105124
-136.320505 248.578517 -61.036387
-141.886537 258.007358 -62.461300
-147.399768 266.579031 -62.689144
-138.286516 249.435685 -57.789954
-139.123339 250.292852 -57.115540
-139.957127 251.150019 -56.432884
-140.175163 250.292852 -54.483135
-148.695373 264.864696 -56.721944
-149.531189 265.721863 -55.967088
-141.177184 250.292852 -51.831373
-141.500061 250.292852 -50.943313
-142.303028 251.150019 -50.224657
-142.435126 250.292852 -48.267207
-150.556712 264.007529 -49.967002
-151.357520 264.864696 -49.179201
-143.810405 251.150019 -45.730027
-144.094895 251.150019 -44.825542
-143.388210 249.435685 -43.619498
-144.153122 250.292852 -42.864504
-152.333003 264.007529 -44.256987
-154.094512 266.579031 -43.720726
-144.935443 250.292852 -40.139827
-145.681995 251.150019 -39.362728
-146.165126 251.150019 -37.528974
-147.397345 252.864354 -36.859753
-154.632012 264.864696 -37.638197
-156.870176 268.293365 -37.140517
-147.563991 252.007186 -33.959486
-147.271816 251.150019 -32.919297
-147.475746 251.150019 -31.993317
-147.673853 251.150019 -31.066073
-155.436070 264.007529 -31.680485
-158.663848 269.150532 -31.301347
-147.727251 250.292852 -28.180623
-147.901398 250.292852 -27.251875
-148.069706 250.292852 -26.322051
-150.262747 253.721521 -25.739012
-155.503310 262.293194 -25.632030
-154.794739 260.578859 -23.521200
-148.823439 250.292852 -21.658080
-148.956582 250.292852 -20.722573
-149.083845 250.292852 -19.786248
-151.760106 254.578688 -19.171901
-156.991293 263.150361 -18.831392
-153.012533 256.293023 -17.379615
-150.046096 251.150019 -16.088416
-149.631782 250.292852 -15.093646
-149.723664 250.292852 -14.153190
-152.374869 254.578688 -13.438411
-158.102826 264.007529 -12.943002
-154.142518 257.150190 -10.670701
-150.094347 250.292852 -9.443271
-149.636503 249.435685 -8.470910
-150.150718 250.292852 -8.500020
-153.287486 255.435856 -7.711703
-157.963774 263.150361 -6.952234
-153.405608 255.435856 -4.821102
-150.858495 251.150019 -3.792420
-150.879345 251.150019 -2.844479
-150.894239 251.150019 -1.896426
-155.023400 258.007358 -0.974190
-159.661803 265.721863 -0.000140
-156.053457 259.721692 0.980389
-151.409240 252.007186 1.902632
-151.394297 252.007186 2.853921
-153.432879 255.435856 3.856867
-158.038672 263.150361 4.966428
-165.724430 276.007871 6.250481
-167.740046 279.436540 7.382208
-159.920814 266.579031 9.052822
-159.346756 265.721863 10.025110
-159.794430 266.579031 11.061679
-164.343947 274.293536 12.414634
-167.855946 280.293707 13.741139
-159.044500 265.721863 14.026344
-157.927727 264.007529 14.928430
-157.318374 263.150361 15.868728
-156.703460 262.293194 16.801961
-161.200527 270.007700 18.309344
-161.082305 270.007700 19.321829
-155.336978 260.578859 19.623491
-154.700053 259.721692 20.531348
-153.410502 258.007358 22.325353
-152.758007 257.150190 23.211442
-158.204820 266.579031 25.057046
-161.093345 271.722034 26.553159
-146.368243 257.209545 25.071645
-146.207825 257.209545 25.990803
-146.041635 257.209545 26.908935
-145.201420 256.343520 28.645201
-151.877559 268.467875 30.954922
-153.147938 271.065951 32.217372
-142.681171 252.879418 30.952921
-142.483873 252.879418 31.848797
-142.280950 252.879418 32.743415
-141.585861 252.013393 33.521546
-148.659685 265.003774 36.184226
-150.130421 268.467875 38.546811
-139.731745 250.281342 36.814257
-139.248244 249.415316 36.686872
-138.532295 248.549291 37.430645
-139.258103 250.281342 38.567225
-145.266211 261.539672 41.215626
-147.885262 266.735824 42.964512
-137.068648 247.683265 40.757645
-136.809857 247.683265 41.618063
-136.068231 246.817240 42.328317
-135.525588 246.817240 44.034814
-142.364459 259.807621 47.247865
-144.432530 264.137748 48.943787
-134.487995 245.951215 45.573887
-134.198993 245.951215 46.417995
-133.433198 245.085189 47.093861
-134.075547 246.817240 48.270049
-140.340752 258.941596 51.524007
-141.887349 262.405697 53.105839
-131.740420 244.219164 50.253972
-131.422066 244.219164 51.080725
-130.633636 243.353138 51.721399
-132.160976 246.817240 53.289085
-137.374009 257.209545 56.397090
-137.939619 258.941596 57.644701
-129.292617 243.353138 54.987901
-128.944568 243.353138 55.799180
-128.133807 242.487113 56.406803
-130.514942 247.683265 58.436718
-134.695730 256.343520 61.327484
-135.668969 258.941596 62.802714
-127.200934 244.219164 60.835206
-126.366484 243.353138 61.414670
-125.978112 243.353138 62.207437
-127.819372 247.683265 64.118704
-131.423512 255.477494 66.963500
-131.888314 257.209545 68.247511
-123.932432 242.487113 65.121059
-123.961966 243.353138 66.133810
-123.543991 243.353138 66.911376
-125.750060 248.549291 69.131559
-128.806265 255.477494 71.869299
-127.917065 254.611469 72.430825
-121.389949 242.487113 69.745826
-120.517368 241.621088 70.255348
-120.934307 243.353138 71.520231
-123.055129 248.549291 73.821983
-126.860255 257.209545 77.192783
-123.819752 252.013393 76.412819
-118.674965 242.487113 74.271480
-119.050292 244.219164 75.551492
-117.672745 243.353138 76.768321
-121.775509 252.879418 80.540210
-123.860706 257.209545 81.919323
-120.436463 251.147367 80.746878
-116.529920 245.085189 80.268473
-115.613305 244.219164 80.712848
-115.512062 245.085189 81.726456
-119.059755 253.745443 85.364071
-117.712033 252.013393 85.522671
-117.575012 252.879418 86.557013
-113.822571 245.951215 84.902428
-113.286870 245.951215 85.615916
-113.143692 246.817240 86.629989
-117.338083 257.209545 91.016616
-118.336473 260.673647 92.987790
-113.837926 252.013393 90.615543
-110.930940 246.817240 89.445942
-111.141252 248.549291 90.773742
-110.568713 248.549291 91.470267
-114.590770 258.941596 96.016693
-115.128886 261.539672 97.705372
-110.720904 252.879418 95.167649
-108.612263 249.415316 94.548275
-108.016059 249.415316 95.228835
-107.788561 250.281342 96.238642
-113.115689 264.137748 102.279474
-113.577090 266.735824 104.001176
-111.454882 263.271723 103.352839
-106.065002 252.013393 99.601533
-105.799424 252.879418 100.610545
-105.165185 252.879418 101.273313
-108.464447 262.405697 105.771989
-110.999638 270.199926 109.613322
-103.640940 255.477494 104.951444
-102.979469 255.477494 105.600564
-102.313932 255.477494 106.245514
-101.988914 256.343520 107.248597
-105.078054 265.869799 111.896616
-108.500792 274.530053 115.541457
-100.624660 258.075570 109.889389
-99.932222 258.075570 110.519460
-99.568846 258.941596 111.518137
-99.527508 260.673647 112.891652
-103.740626 273.664028 119.171652
-105.923059 281.458256 123.233744
-101.587862 271.931977 119.703410
-96.980224 261.539672 115.740382
-96.569808 262.405697 116.732695
-96.150739 263.271723 117.724404
-100.430696 277.128129 124.553905
-102.448671 284.922358 128.703224
-94.532596 265.003774 120.302071
-93.774855 265.003774 120.893658
-93.621342 266.735824 122.274463
-93.152691 267.601850 123.259183
-97.159640 281.458256 130.254575
-98.355451 284.922358 131.857708
-96.042885 280.592231 130.459818
-91.694577 270.199926 126.206595
-89.812633 269.333901 126.940699
-89.235060 267.601850 126.124360
-91.589220 277.128129 131.192282
-91.330382 278.860180 132.588693
-85.436750 263.271723 125.716195
-82.417666 256.343520 122.928143
-81.367840 255.477494 123.026520
-80.866438 256.343520 123.954101
-82.250507 263.271723 127.823527
-84.928627 274.530053 133.825925
-78.250474 255.477494 125.032449
-76.938157 253.745443 124.670646
-76.673133 255.477494 126.005876
-75.622686 254.611469 126.056374
-78.392456 266.735824 132.554226
-79.068922 271.931977 135.635930
-72.984192 253.745443 127.025815
-72.184630 253.745443 127.481878
-71.382218 253.745443 127.932908
-70.817865 254.611469 128.817041
-73.102642 265.869799 134.975011
-71.865920 267.601850 136.768196
-67.558314 254.611469 130.556019
-66.509683 253.745443 130.532418
-65.688216 253.745443 130.947731
-65.528294 256.343520 132.702836
-67.315907 266.735824 138.508371
-67.307223 270.199926 140.732860
-62.589631 254.611469 133.009541
-61.962720 255.477494 133.853918
-60.913285 254.611469 133.785544
-60.888788 258.075570 135.991013
-62.047669 266.735824 140.947106
-61.756576 269.333901 142.710810
-57.336317 253.745443 134.813934
-56.873714 255.477494 136.094198
-55.637712 253.745443 135.523780
-56.093957 259.807621 139.116742
-57.059384 268.467875 144.115324
-55.790485 266.735824 143.538921
-52.570827 255.477494 137.813491
-51.703887 255.477494 138.141080
-51.703887 255.477494 138.141080
-51.696514 259.807621 140.810051
-52.335087 267.601850 145.366051
-53.084798 276.262104 150.406962
-47.725726 252.879418 137.979184
-47.178785 254.611469 139.223426
-46.303092 254.611469 139.517109
-45.580081 255.477494 140.280812
-46.667509 266.735824 146.758794
-45.447439 265.003774 146.094252
-42.636872 253.745443 140.158293
-41.755395 253.745443 140.423420
-41.011766 254.611469 141.163151
-41.215817 261.539672 145.266157
-42.037142 272.798002 151.786458
-39.647984 263.271723 146.737989
-37.451369 254.611469 142.149200
-36.681831 255.477494 142.865998
-35.783459 255.477494 143.093655
-35.711423 261.539672 146.716374
-35.595242 267.601850 150.343702
-35.322722 272.798002 153.487965
-32.176200 255.477494 143.947706
-31.165117 254.611469 143.658399
-30.158944 253.745443 143.362087
-30.776533 258.941596 146.297830
-31.254688 271.065951 153.347300
-29.806693 266.735824 151.087925
-27.451433 253.745443 143.905069
-26.546715 253.745443 144.074710
-25.640949 253.745443 144.238662
-25.747174 264.137748 150.310788
-25.290154 269.333901 153.429652
-24.169199 267.601850 152.597837
-22.158345 255.477494 145.826122
-21.097649 253.745443 144.972891
-20.324138 255.477494 146.093051
-19.734725 259.807621 148.696135
-19.677392 271.931977 155.761999
-17.745547 258.075570 147.939500
-16.589957 254.611469 146.060855
-15.725214 255.477494 146.659359
-14.703059 253.745443 145.760317
-14.445697 265.869799 152.818755
-13.529156 266.735824 153.404570
-12.075479 256.343520 147.506552
-11.110772 255.477494 147.080933
-10.117361 253.745443 146.150228
-9.261669 255.477494 147.208938
-9.198878 253.745443 146.210912
-9.099557 278.860180 160.742645
-7.436226 256.343520 147.813066
-6.485364 255.477494 147.357355
-5.540523 254.611469 146.895550
-4.648859 256.343520 147.926969
-3.882669 267.601850 154.451206
-3.006397 276.262104 159.471664
-1.847273 254.611469 146.988393
-0.929971 256.343520 147.997078
-0.000065 256.343520 148.000000
0.926699 255.477494 147.497089
1.897406 261.539672 150.988079
2.016779 277.994155 160.487328
2.827201 259.807621 149.973354
3.706625 255.477494 147.453420
5.540394 254.611469 146.895555
6.463251 254.611469 146.857844
7.737560 266.735824 153.805495
8.816825 270.199926 155.750646
9.261539 255.477494 147.208946
10.151762 254.611469 146.649043
11.035316 253.745443 146.083784
11.952964 253.745443 146.011563
13.529021 266.735824 153.404581
15.907267 274.530053 157.699743
15.725085 255.477494 146.659373
16.589829 254.611469 146.060869
17.447675 253.745443 145.457309
18.486593 255.477494 146.336926
20.260850 266.735824 152.661383
21.564118 271.065951 155.007222
21.097522 253.745443 144.972910
22.007991 253.745443 144.837489
23.074026 255.477494 145.684039
24.070243 256.343520 146.029529
26.000291 266.735824 151.789278
27.566071 272.798002 155.068893
26.637191 254.611469 144.566455
27.451307 253.745443 143.905093
28.451716 254.611469 144.220317
29.257457 253.745443 143.548776
31.702784 266.735824 150.701471
33.815075 276.262104 155.874279
32.067002 254.611469 143.459776
32.855613 253.745443 142.768199
33.982387 255.477494 143.532043
35.001798 256.343520 143.801510
37.360226 266.735824 149.399510
39.790325 277.128129 154.973320
37.451244 254.611469 142.149232
37.323859 253.745443 141.665732
38.213229 253.745443 141.428424
39.901795 258.941596 144.076704
42.443972 269.333901 149.595318
43.243568 268.467875 148.845537
41.755272 253.745443 140.423457
42.782266 254.611469 140.636687
43.516542 253.745443 139.887671
45.152205 258.075570 141.993938
47.434057 265.869799 145.987192
48.350380 265.869799 145.686275
46.857719 252.879418 138.276369
47.725605 252.879418 137.979226
48.924425 254.611469 138.619626
50.980008 260.673647 141.602573
53.074961 266.735824 144.565032
54.530969 265.003774 142.952347
53.435570 255.477494 137.480507
54.298326 255.477494 137.142050
54.971958 254.611469 136.334456
55.637593 253.745443 135.523829
59.379888 266.735824 142.091621
62.032678 274.530053 145.856768
58.380696 254.611469 134.909949
59.227202 254.611469 134.540472
59.867046 253.745443 133.709337
62.777856 262.405697 137.881075
64.693158 266.735824 139.752622
64.718409 263.271723 137.533732
63.639725 255.477494 133.064779
64.255976 254.611469 132.212592
64.864040 253.745443 131.357932
68.154207 263.271723 135.863918
70.822475 270.199926 138.997040
72.613575 273.664028 140.325581
68.377169 254.611469 130.129024
69.193439 254.611469 129.696831
69.193439 254.611469 129.696831
70.721334 257.209545 130.578493
75.153532 270.199926 136.703865
73.574730 261.539672 131.862653
71.938154 252.879418 127.046849
72.734988 252.879418 126.592344
73.780762 253.745443 126.564802
77.374257 263.271723 130.832811
79.480870 267.601850 132.487891
77.192839 257.209545 126.860221
76.675461 252.879418 124.245216
78.766504 254.611469 124.116227
79.003668 252.879418 122.777931
83.598299 265.003774 128.141813
85.229251 267.601850 128.865142
81.860682 254.611469 122.097620
82.064140 252.879418 120.753786
82.821234 252.879418 120.235782
83.861274 253.745443 120.123007
88.657376 265.869799 125.308099
89.442955 265.869799 124.748578
86.404401 254.611469 118.925521
86.557065 252.879418 117.574974
87.593049 253.745443 117.429586
88.329148 253.745443 116.876908
93.013304 265.003774 121.480555
94.694109 267.601850 122.078974
93.296771 261.539672 118.729577
90.926987 252.879418 114.229081
92.671501 253.745443 113.464721
93.063875 252.879418 112.494956
97.301249 262.405697 116.123714
100.293645 268.467875 118.178614
98.100948 260.673647 114.133492
95.861494 252.879418 110.120725
96.551506 252.879418 109.516239
97.237707 252.879418 108.907430
102.614867 265.003774 113.486515
105.689558 271.065951 115.420827
107.092631 272.798002 115.487742
99.943853 252.879418 106.429442
100.610592 252.879418 105.799380
101.273359 252.879418 105.165140
107.168367 265.869799 109.896274
107.505421 265.003774 108.864982
103.237567 252.879418 103.237613
104.239954 253.745443 102.938243
104.168736 252.013393 101.583091
104.526704 252.879418 101.932174
110.207258 265.003774 106.128979
113.770518 271.931977 108.190892
106.429399 252.879418 99.943900
106.688632 252.013393 98.933239
107.676895 252.879418 98.598612
107.923408 252.013393 97.584774
114.128974 265.003774 101.899839
118.517528 273.664028 104.487299
111.252059 255.477494 96.846421
110.341640 252.013393 94.841829
110.935367 252.013393 94.146664
112.291207 253.745443 94.090036
117.888507 265.003774 97.525893
121.209710 271.065951 98.997254
113.266248 252.013393 91.329115
113.837846 252.013393 90.615643
114.798094 252.879418 90.207525
115.922582 252.879418 88.757845
122.461430 265.869799 92.549707
124.242866 268.467875 92.675295
117.172282 252.013393 86.260688
118.116466 252.879418 85.816668
118.653333 252.879418 85.072831
124.899890 265.003774 88.368645
127.502538 269.333901 89.013217
119.303018 252.013393 83.288895
120.235745 252.879418 82.821287
121.994371 255.477494 82.907319
129.157648 269.333901 86.594180
128.448065 266.735824 84.953485
122.279081 252.879418 79.773594
122.777896 252.879418 79.003722
129.182160 265.003774 81.981520
135.628456 277.128129 84.881811
124.245182 252.879418 76.675515
124.297355 252.013393 75.633442
124.770117 252.013393 74.850971
132.123889 265.869799 78.137877
128.292616 257.209545 74.788064
126.592312 252.879418 72.735044
126.611726 252.013393 71.691846
130.116095 258.075570 72.600287
135.827525 268.467875 74.671839
127.940514 252.013393 69.292676
128.373364 252.013393 68.487440
128.801147 252.013393 67.679499
135.884867 265.003774 70.315737
135.878486 264.137748 69.233569
130.053919 252.013393 65.239775
130.863456 252.013393 63.600361
135.320086 259.807621 64.718424
140.700599 269.333901 66.208697
132.038976 252.013393 61.122490
132.420412 252.013393 60.291663
132.796619 252.013393 59.458456
