# .PCD v.7 - Point Cloud Data file format
VERSION .7
FIELDS x y z
SIZE 4 4 4
TYPE F F F
COUNT 1 1 1
WIDTH 1444
HEIGHT 1
VIEWPOINT 0 0 0 1 0 0 0
POINTS 1444
DATA ascii
2.263380 -18.880196 360.248495
4.572631 -19.071222 363.871872
7.063021 -19.639068 374.669165
9.345461 -19.489910 371.772196
11.966618 -19.966167 380.789183
14.333844 -19.931277 380.041199
17.229278 -20.536629 391.483280
19.518089 -20.358687 387.976247
22.169889 -20.557564 391.634680
24.830802 -20.725039 394.676962
27.641157 -20.976251 399.295133
29.998995 -20.871579 397.121993
33.292066 -21.384472 406.679607
35.793998 -21.353070 405.865539
39.283193 -21.876430 415.574605
41.542750 -21.693254 411.842024
45.478146 -22.356176 424.150092
48.179812 -22.373621 424.186724
52.188037 -22.965018 435.079828
56.697964 -23.708188 448.812057
59.648180 -23.760524 449.436906
63.193285 -24.035288 454.246052
66.901820 -24.346687 459.719942
72.271806 -25.212847 475.630277
74.321516 -24.898831 469.248786
80.151254 -25.827794 486.262225
81.097407 -25.173595 473.445351
86.124231 -25.788542 484.479236
91.021394 -26.324986 493.995041
97.928297 -27.389150 513.359193
108.770480 -29.452059 551.352085
123.899559 -32.513713 607.900749
130.903134 -33.324920 622.257488
142.908429 -35.326770 658.752002
148.787394 -35.745458 665.637719
158.733804 -37.093109 689.749406
169.449002 -38.545432 715.704922
179.571361 -39.792772 737.751611
190.300255 -41.109894 760.990170
198.678967 -41.868765 773.804675
219.374694 -45.126678 832.654424
258.530052 -51.943437 956.828272
249.122183 -48.916674 899.526028
256.222865 -49.195799 903.066784
286.130840 -53.749027 984.870136
302.417579 -55.606954 1017.033787
210.614925 -37.926123 692.347269
200.821325 -35.431442 645.557440
294.221939 -50.883633 925.264486
275.985152 -46.805790 849.395976
336.573325 -55.999473 1014.141240
91.423606 -14.928832 269.789579
326.330901 -52.318511 943.453423
125.411677 -19.748101 355.334164
96.661615 -14.954999 268.488254
133.423346 -20.288906 363.417137
135.470746 -20.254015 361.948134
139.521860 -20.515695 365.755050
141.455420 -20.463359 363.940400
145.822497 -20.759929 368.305945
109.513157 -15.347519 271.600598
150.186293 -20.725039 365.828580
112.628663 -15.308267 269.511950
79.991306 -10.711426 188.082696
157.980320 -20.847156 365.071307
123.723846 -16.093307 281.051001
83.658192 -10.728871 186.845386
0.413807 -0.052336 0.908859
0.419510 -0.052336 0.906241
176.456128 -21.719422 374.988669
0.430864 -0.052336 0.900898
125.061958 -14.994251 257.326503
128.444914 -15.203595 260.117290
164.480276 -19.224741 327.887825
186.560952 -21.536246 366.146762
165.680860 -18.893280 320.177914
152.174569 -17.145259 289.604387
169.847834 -18.910726 318.364375
132.212706 -14.549396 244.114964
183.456868 -19.957445 333.707041
68.932465 -7.414260 123.542658
350.832947 -37.315537 619.590828
203.179860 -21.374005 353.626436
477.618470 -49.701713 819.315028
499.600034 -51.435778 844.778082
392.184738 -39.953269 653.738807
420.474812 -42.392125 691.016527
485.854792 -48.484030 787.281005
426.476037 -42.130445 681.445680
469.632610 -45.933524 740.023041
414.200833 -40.115510 643.700758
471.983184 -45.270602 723.469036
471.194263 -44.764688 712.437506
468.431852 -44.084320 698.679911
240.241894 -22.399789 353.505420
494.093715 -45.647421 717.300881
435.023677 -39.827663 623.128525
335.109727 -30.407191 473.643192
443.900245 -39.924858 619.120020
469.818392 -41.889699 646.649899
426.715799 -37.721140 579.630317
294.064543 -25.775458 394.230796
293.344602 -25.498078 388.152847
381.408657 -32.880065 498.140944
359.160848 -30.710739 463.027619
410.313418 -34.803411 522.165320
426.232153 -35.867575 535.463768
426.140566 -35.579728 528.499444
391.761178 -32.457016 479.662815
404.118462 -33.225856 488.495551
415.288552 -33.887532 495.624156
413.225081 -33.468844 486.913872
459.563800 -36.949185 534.669871
464.444071 -37.071302 533.529319
463.494511 -36.731119 525.731577
458.253174 -36.059474 513.249202
451.645709 -35.291880 499.495827
445.221098 -34.550454 486.214425
438.647797 -33.809028 473.033889
431.454806 -33.031465 459.452913
429.245562 -32.644553 451.383034
423.010336 -31.959824 439.265982
428.434591 -32.160445 439.340138
426.976451 -31.846429 432.376185
266.415614 -19.745609 266.415731
273.423638 -20.138876 270.009222
320.912733 -23.491368 312.947133
296.120774 -21.544969 285.162666
254.418135 -18.399827 241.940754
293.163700 -21.076437 275.299155
258.850482 -18.500761 240.034164
235.154644 -16.710123 215.328661
255.087208 -18.023195 230.650865
260.845706 -18.326307 232.895596
287.460576 -20.083923 253.430692
242.536059 -16.852178 211.130917
231.957056 -16.029756 199.373794
241.934050 -16.629750 205.320309
275.559275 -18.840944 230.894142
270.189385 -18.377397 223.520186
233.800319 -15.820412 190.954912
264.647581 -17.816655 213.391277
243.771358 -16.328818 194.043539
262.484732 -17.495163 206.258633
242.738280 -16.099849 188.287182
257.806471 -17.016662 197.393349
261.886994 -17.203576 197.919986
241.207799 -15.770568 179.921830
251.486121 -16.366201 185.140765
249.759037 -16.179287 181.460630
210.199296 -13.555013 150.710045
250.156199 -16.059662 176.989462
250.327508 -15.999849 174.760889
237.674721 -15.125091 163.716091
330.850768 -20.964289 224.846030
333.441917 -21.039054 223.557255
328.533468 -20.642796 217.286754
336.583268 -21.061484 219.583407
327.518884 -20.411023 210.748121
331.486545 -20.575507 210.367832
337.155285 -20.844664 211.005506
332.282804 -20.463359 205.061916
332.711572 -20.411023 202.450982
326.636879 -19.962429 195.953071
330.609163 -20.129717 195.521781
327.265799 -19.852773 190.779301
334.601675 -20.224109 192.249175
324.568186 -19.547480 183.781497
336.866487 -20.216632 187.959865
328.602177 -19.652152 180.650636
333.055023 -19.850281 180.382846
330.014163 -19.602723 176.063199
331.127911 -19.603554 173.993569
330.440764 -19.498882 170.991710
332.017056 -19.528788 169.171195
328.610347 -19.267108 164.842900
328.056632 -19.174586 161.993278
335.403308 -19.543741 163.007856
325.867518 -18.930663 155.849976
327.550275 -18.971784 154.133509
220.035241 -12.707170 101.857058
227.578207 -13.104923 103.617474
267.659760 -15.369326 119.842178
228.725202 -13.097073 100.689182
231.771865 -13.235182 100.296674
248.253359 -14.138185 105.581934
224.977170 -12.778696 94.017758
227.154462 -12.868830 93.255506
216.416010 -12.229168 87.262071
213.439448 -12.030728 84.506682
219.401373 -12.336333 85.276473
195.540295 -10.968121 74.591401
212.706288 -11.902692 79.612285
204.780159 -11.432499 75.182176
185.502166 -10.332613 66.784910
183.093030 -10.175605 64.620964
209.920939 -11.641012 72.609612
208.616526 -11.543817 70.693993
217.519047 -12.011102 72.190356
202.455702 -11.156281 65.781865
218.052143 -11.991476 69.337819
208.964967 -11.469051 65.005349
207.049021 -11.341949 62.985275
211.953232 -11.588676 63.024933
196.590411 -10.728871 57.114811
160.438441 -8.740105 45.520516
198.575800 -10.798652 54.995320
206.721708 -11.222324 55.855234
230.796618 -12.508294 60.806772
261.279955 -14.137250 67.085310
270.197499 -14.596498 67.568217
272.654336 -14.706404 66.365160
266.263582 -14.340052 63.040207
268.384535 -14.433094 61.764147
268.659024 -14.427279 60.052424
257.645203 -13.816692 55.893188
264.133952 -14.145661 55.565483
267.832763 -14.325099 54.588575
267.103241 -14.268090 52.694124
264.486231 -14.111082 50.453461
262.500610 -13.988653 48.367349
264.976446 -14.104540 47.104084
264.556299 -14.066742 45.316501
269.105587 -14.293531 44.357156
260.638955 -13.829776 41.281167
264.266450 -14.008591 40.155287
263.484140 -13.954074 38.344264
263.242972 -13.928841 36.621654
256.396810 -13.555013 34.028480
260.710111 -13.771833 32.935356
257.175990 -13.574639 30.848500
263.513143 -13.898935 29.930365
260.701423 -13.741096 27.952997
263.549076 -13.882112 26.584469
257.355145 -13.547536 24.327231
258.639795 -13.607349 22.810014
257.119174 -13.520122 21.048694
258.020856 -13.560828 19.491269
258.525658 -13.581181 17.896521
254.859936 -13.383052 16.034433
259.513518 -13.622302 14.690810
254.702910 -13.365295 12.813562
251.268753 -13.181184 11.058512
250.256155 -13.124695 9.438909
245.969419 -12.897075 7.729903
249.435923 -13.076512 6.270331
247.505189 -12.973502 4.665917
219.181876 -11.487742 2.754466
218.251725 -11.438314 1.371334
473.621853 -24.821470 0.000833
248.083214 -13.001747 -1.558337
239.402533 -12.547546 -3.008159
246.617684 -12.926981 -4.648752
238.597094 -12.508294 -5.997444
244.210810 -12.804864 -7.674206
237.704555 -12.466425 -8.965082
239.439329 -12.560629 -10.537468
236.775237 -12.424556 -11.911241
241.946765 -12.700192 -13.695946
235.069162 -12.343809 -14.788887
231.925937 -12.183811 -16.054737
234.841055 -12.342563 -17.739818
230.710580 -12.131475 -18.886384
225.315087 -11.854094 -19.870635
233.238791 -12.278015 -22.047149
227.862767 -12.002379 -22.984349
227.382875 -11.984934 -24.380103
227.059828 -11.976211 -25.789518
224.367286 -11.842879 -26.912665
222.721782 -11.765123 -28.135914
223.530553 -11.817459 -29.666135
214.635626 -11.356903 -29.859146
217.161386 -11.500826 -31.602626
214.638387 -11.377837 -32.613916
215.185423 -11.417961 -34.081644
215.788147 -11.461574 -35.568357
215.166689 -11.440640 -36.856043
214.144297 -11.398771 -38.067414
209.677867 -11.173727 -38.634053
216.788045 -11.566246 -41.354148
205.942672 -11.001018 -40.627991
214.098543 -11.451107 -43.636295
208.738495 -11.178960 -43.911636
209.044029 -11.210362 -45.349332
210.021919 -11.278399 -46.945087
206.872749 -11.125129 -47.607870
206.500127 -11.121391 -48.890308
206.868076 -11.158026 -50.352135
202.155741 -10.920770 -50.552655
206.219016 -11.158026 -52.947673
201.504533 -10.920770 -53.088961
203.609273 -11.053354 -55.013884
202.906712 -11.034164 -56.194376
198.226436 -10.798652 -56.241566
202.983699 -11.077777 -58.971846
199.236142 -10.893355 -59.243087
200.825374 -11.001018 -61.091626
200.818985 -11.021952 -62.470889
197.472318 -10.859711 -62.793313
197.168856 -10.864945 -64.063681
197.547759 -10.908309 -65.561886
201.077266 -11.126624 -68.138766
197.247605 -10.938215 -68.225640
195.873341 -10.885879 -69.131267
195.810949 -10.906813 -70.495912
195.692255 -10.925131 -71.845288
194.134699 -10.863449 -72.660871
195.193865 -10.948682 -74.458858
192.541458 -10.826066 -74.836227
192.664345 -10.859711 -76.280842
193.261796 -10.920770 -77.925560
190.766775 -10.807375 -78.316591
194.570843 -11.051609 -81.310579
187.470154 -10.676535 -79.730501
194.690260 -11.117652 -84.249619
195.854470 -11.214848 -86.218450
194.288935 -11.156281 -86.990660
189.951611 -10.938215 -86.485497
193.482547 -11.173727 -89.565071
189.572702 -10.980084 -89.205764
190.089546 -11.042887 -90.912152
194.364715 -11.325501 -94.461900
184.096901 -10.760273 -90.906037
192.550276 -11.289613 -96.589796
186.855095 -10.990551 -95.207043
189.653067 -11.191172 -98.138505
184.052732 -10.896346 -96.711434
190.901282 -11.339457 -101.845774
183.776299 -10.953168 -99.532961
189.898113 -11.356903 -104.396971
181.680514 -10.903324 -101.371033
185.240126 -11.156281 -104.888802
184.606301 -11.158026 -106.067205
187.358424 -11.365625 -109.219982
185.808918 -11.313289 -109.886684
187.174139 -11.439145 -112.287385
181.711899 -11.147559 -110.569063
186.962394 -11.513910 -115.379777
183.165131 -11.324193 -114.631749
184.373536 -11.444129 -117.006590
179.295797 -11.173727 -115.370772
185.007501 -11.576714 -120.696496
184.356554 -11.583692 -121.929995
181.888396 -11.476528 -121.947223
179.781344 -11.391793 -122.178857
177.091183 -11.269676 -121.984227
184.646008 -11.801758 -128.906247
178.044354 -11.430173 -125.968723
176.248409 -11.365625 -126.367250
179.894447 -11.653473 -130.700531
176.465593 -11.484004 -129.911163
175.836447 -11.496465 -131.159520
176.389832 -11.587181 -133.305381
177.836865 -11.738207 -136.162938
182.012861 -12.072161 -141.183188
176.149185 -11.740700 -138.416274
177.619977 -11.897707 -141.386112
178.606830 -12.024186 -144.014172
180.598852 -12.220446 -147.502425
179.833392 -12.231661 -148.770646
179.660538 -12.283997 -150.539000
181.593571 -12.482126 -154.111069
176.240026 -12.179325 -151.482857
174.144170 -12.100073 -151.594315
174.286900 -12.176832 -153.654089
172.697262 -12.133219 -154.191878
169.626319 -11.984934 -153.376248
170.974010 -12.149418 -156.558569
174.886066 -12.499571 -162.172703
169.617164 -12.194278 -159.280625
169.577914 -12.264059 -161.260768
168.081793 -12.229168 -161.861266
171.708694 -12.569352 -167.446002
170.416363 -12.551907 -168.287673
167.119517 -12.386176 -167.119002
167.820405 -12.517016 -169.942138
169.247656 -12.704553 -173.555143
165.209852 -12.482126 -171.558012
163.391341 -12.426051 -171.817314
165.205767 -12.647856 -175.925734
162.771429 -12.545676 -175.530644
161.087267 -12.500817 -175.918609
162.195376 -12.674024 -179.378715
158.958961 -12.508294 -178.035365
161.249303 -12.778696 -182.900871
163.172412 -13.024177 -187.443358
162.456415 -13.061559 -189.005838
157.850185 -12.784926 -185.998320
162.267528 -13.240997 -193.656721
161.153643 -13.249720 -194.800691
159.442194 -13.209595 -195.216427
158.588573 -13.240997 -196.680808
159.733755 -13.441618 -200.668412
153.759899 -13.042120 -195.674313
159.994646 -13.680619 -206.263215
153.717300 -13.251464 -200.762622
153.295791 -13.324734 -202.839867
153.550816 -13.459063 -205.853577
152.155702 -13.450341 -206.680262
153.202020 -13.659685 -210.863828
149.740500 -13.467786 -208.846465
152.616617 -13.848094 -215.707113
151.829934 -13.900430 -217.480595
146.532792 -13.537567 -212.728277
150.432230 -14.026036 -221.353596
147.926236 -13.921364 -220.635501
145.159803 -13.790524 -219.478252
141.868161 -13.607349 -217.458651
142.255274 -13.777440 -221.075059
145.545489 -14.235380 -229.342243
141.664612 -13.994635 -226.358229
139.592745 -13.930087 -226.195740
142.062065 -14.322607 -233.466651
140.078620 -14.270271 -233.498288
137.846234 -14.191767 -233.084471
135.037851 -14.052204 -231.645342
133.579724 -14.052204 -232.489232
131.083012 -13.942299 -231.499063
138.919630 -14.941916 -248.974548
130.857765 -14.235380 -238.028568
130.881492 -14.402855 -241.656022
128.404759 -14.296439 -240.682067
131.736423 -14.842477 -250.707351
123.916854 -14.130708 -239.468028
128.368368 -14.818552 -251.936203
130.860787 -15.295183 -260.866967
122.255233 -14.470892 -247.581302
120.333466 -14.427279 -247.596086
119.177550 -14.476125 -249.188108
120.755971 -14.863412 -256.618539
120.120075 -14.985529 -259.486761
120.832228 -15.282099 -265.386567
120.141798 -15.407706 -268.327992
115.315109 -14.999485 -261.948470
121.202466 -15.993868 -280.081271
114.971694 -15.395494 -270.330383
119.059588 -16.182278 -284.899260
113.272302 -15.631006 -275.910918
115.246062 -16.150876 -285.817170
114.575328 -16.311373 -289.383041
113.598985 -16.433490 -292.269073
115.604360 -16.998719 -303.053981
111.405084 -16.655918 -297.648367
111.511706 -16.956850 -303.732785
108.450972 -16.778908 -301.232825
108.217966 -17.040587 -306.616781
106.637516 -17.096412 -308.297363
108.010219 -17.637217 -318.734562
105.879609 -17.616283 -319.027796
105.925177 -17.964317 -326.002612
104.361120 -18.048428 -328.191194
102.339363 -18.055905 -328.976654
101.190690 -18.221635 -332.638609
100.711580 -18.518206 -338.692016
99.742416 -18.736272 -343.313854
99.600442 -19.123558 -351.043019
97.072976 -19.060755 -350.507011
96.171201 -19.322435 -355.930307
91.147009 -18.749356 -345.953388
90.647900 -19.102624 -353.048223
89.057754 -19.238698 -356.129680
86.629441 -19.196829 -355.905973
83.425206 -18.977018 -352.361842
84.322729 -19.704488 -366.406414
81.256420 -19.521312 -363.517967
79.658863 -19.691404 -367.193105
77.298767 -19.678320 -367.442056
75.886019 -19.913831 -372.323786
73.512942 -19.905109 -372.629948
73.128787 -20.452892 -383.351666
71.448556 -20.663980 -387.764703
68.690325 -20.568031 -386.403410
67.300861 -20.890769 -392.897185
65.323563 -21.049522 -396.301135
62.176126 -20.829711 -392.561145
61.208590 -21.353070 -402.817024
57.899824 -21.070456 -397.857269
56.279544 -21.405406 -404.543473
53.263640 -21.216997 -401.325284
51.066427 -21.353070 -404.227988
48.882401 -21.510078 -407.515432
46.839392 -21.750823 -412.378871
44.247431 -21.750823 -412.665029
41.593587 -21.719422 -412.338744
39.632995 -22.070820 -419.267270
37.461622 -22.347453 -424.766075
35.672001 -22.912682 -435.742306
33.650609 -23.411618 -445.451057
31.021228 -23.540713 -448.111100
29.020244 -24.221081 -461.253731
26.144124 -24.242015 -461.825778
23.563021 -24.576965 -468.364086
2.405149 -2.866730 -54.647561
6.908361 -9.605661 -183.156689
15.270447 -25.477143 -485.892960
12.372811 -25.801626 -492.168863
9.524909 -26.481994 -505.216765
6.356646 -26.508162 -505.765915
3.228926 -26.926849 -513.784749
0.000580 -23.027821 -439.396995
-3.280893 -27.371705 -522.272942
-6.706641 -27.973569 -533.725351
-5.688737 -15.818543 -301.782164
-13.538399 -28.235248 -538.590505
-11.636936 -19.416640 -370.308757
-20.060640 -27.895065 -531.891376
-18.449535 -21.991569 -419.218351
-22.795793 -23.777969 -453.137659
-31.342890 -29.063901 -553.685853
-22.128077 -18.469466 -351.723015
-26.506680 -20.115578 -382.911741
-26.842600 -18.675759 -355.342304
-28.244598 -18.142530 -345.025941
-39.550059 -23.594001 -448.459752
-30.538869 -17.006959 -323.071947
-41.764310 -21.809141 -414.042147
-47.351808 -23.277423 -441.628392
-38.426676 -17.844623 -338.320413
-46.595750 -20.504317 -388.461094
-51.816321 -21.667086 -410.172654
-56.247289 -22.405946 -423.814742
-50.483315 -19.201228 -362.886566
-72.217671 -26.281373 -496.251205
-66.049032 -23.042094 -434.679953
-47.321284 -15.853433 -298.777294
-75.937111 -24.469967 -460.698354
-59.886534 -18.589584 -349.618463
-61.866608 -18.525072 -348.023313
-87.275166 -25.241632 -473.665700
-88.509308 -24.754907 -463.985234
-114.616805 -31.035222 -580.989503
-74.602954 -19.577386 -366.033549
-74.219123 -18.894557 -352.807494
-60.211840 -14.884346 -277.554230
-124.917433 -30.010933 -558.851774
-13.437882 -3.140193 -58.392154
-80.816026 -18.383703 -341.345501
-95.053686 -21.063845 -390.520393
-86.900651 -18.772908 -347.507618
-67.254965 -14.173075 -261.942153
-74.852227 -15.397599 -284.108705
-16.735489 -3.362478 -61.938816
-47.910452 -9.407542 -172.994817
-40.461602 -7.768811 -142.608861
-39.719749 -7.461287 -136.716904
-77.208047 -14.196651 -259.652383
-19.076094 -3.435105 -62.708392
-17.661627 -3.116097 -56.774998
-18.324481 -3.169100 -57.626714
-175.897627 -29.831495 -541.359499
-86.580899 -14.405472 -260.880802
-302.233958 -49.352807 -891.890091
-116.466658 -18.672389 -336.717056
-91.233444 -14.366220 -258.496268
-82.764015 -12.804864 -229.886779
-105.217520 -15.999849 -286.591177
-311.284439 -46.539749 -831.686006
-380.599572 -55.964583 -997.740302
-258.019891 -37.326004 -663.842410
-88.718700 -12.630411 -224.078653
-118.802377 -16.649376 -294.639287
-152.947955 -21.106181 -372.556458
-135.328303 -18.393596 -323.831286
-139.121171 -18.629389 -327.114908
-113.111036 -14.926215 -261.385045
-143.063109 -18.608887 -324.982834
-61.398507 -3.297165 13.724140
-96.129005 -5.155092 20.854003
-113.034089 -6.053526 23.778716
-121.987874 -6.524549 24.862956
-121.488520 -6.489659 23.967142
-124.906515 -6.664112 23.827085
-123.416929 -6.576885 22.740214
-120.443858 -6.411155 21.410841
-129.434654 -6.882178 22.171064
-121.196065 -6.437323 19.976855
-133.155209 -7.065354 21.089599
-121.766625 -6.454768 18.502329
-130.445048 -6.908346 18.983262
-123.638019 -6.541995 17.200078
-130.673293 -6.908346 17.342585
-132.430938 -6.995573 16.729804
-123.609742 -6.524549 14.826993
-130.976960 -6.908346 14.876516
-123.455319 -6.507104 13.237049
-130.159970 -6.856010 13.129256
-122.783411 -6.463491 11.606344
-132.967392 -6.995573 11.726570
-122.919563 -6.463491 10.062526
-129.784942 -6.821120 9.804028
-124.032549 -6.515827 8.586083
-125.911256 -6.611776 7.921556
-128.617299 -6.751338 7.280788
-123.673665 -6.489659 6.221650
-130.361407 -6.838565 5.737181
-123.243122 -6.463491 4.648251
-133.417619 -6.995573 4.192701
-124.456501 -6.524549 3.128483
-132.794136 -6.960682 2.503291
-125.318113 -6.568163 1.574767
-130.152148 -6.821120 0.817667
-125.494445 -6.576885 -0.000110
-130.152146 -6.821120 -0.817896
-126.150235 -6.611776 -1.585445
-137.120757 -7.187471 -2.585093
-127.784209 -6.699002 -3.212357
-133.084899 -6.978127 -4.182480
-134.719193 -7.065354 -5.081321
-131.359061 -6.890901 -5.781319
-137.636808 -7.222362 -6.924337
-134.599485 -7.065354 -7.619666
-133.552294 -7.013018 -8.402518
-133.994986 -7.039186 -9.275964
-136.423540 -7.170026 -10.305752
-138.844344 -7.300866 -11.366417
-134.542421 -7.078438 -11.865712
-132.725366 -6.986850 -12.546362
-142.579789 -7.510210 -14.382298
-134.708594 -7.100245 -14.443881
-141.643616 -7.470958 -16.088299
-144.431673 -7.623604 -17.324843
-133.751915 -7.065354 -16.896921
-140.572752 -7.431706 -18.656665
-135.177534 -7.152581 -18.805656
-135.880223 -7.196194 -19.774470
-134.272350 -7.117690 -20.402804
-147.457023 -7.824225 -23.355038
-134.498033 -7.143858 -22.169673
-141.410187 -7.518932 -24.222628
-135.192043 -7.196194 -24.032815
-138.966762 -7.405538 -25.605605
-134.879372 -7.196194 -25.729747
-143.042885 -7.641050 -28.219629
-134.545401 -7.196194 -27.422615
-142.188362 -7.614882 -29.912093
-133.702220 -7.170026 -29.005295
-138.390232 -7.431706 -30.934019
-133.327182 -7.170026 -30.683112
-137.990587 -7.431706 -32.670594
-135.356839 -7.300866 -32.946524
-134.662761 -7.274698 -33.675207
-137.350283 -7.431706 -35.265698
-135.194641 -7.327034 -35.619149
-135.450201 -7.353202 -36.598136
-133.292770 -7.248530 -36.915392
-144.746820 -7.885284 -41.068537
-134.256832 -7.327034 -39.005355
-142.943046 -7.815503 -42.504683
-133.756088 -7.327034 -40.689352
-140.490532 -7.710831 -43.704285
-141.799281 -7.798057 -45.090513
-135.814654 -7.484042 -44.129002
-141.221475 -7.798057 -46.868808
-138.086804 -7.641050 -46.793684
-147.542332 -8.181854 -51.033603
-139.999084 -7.780612 -49.411499
-150.647756 -8.391198 -54.236696
-149.679041 -8.356308 -54.952719
-144.498602 -8.085905 -54.083473
-147.110588 -8.251636 -56.117405
-147.530752 -8.295249 -57.342098
-154.131315 -8.687769 -61.025080
-156.523364 -8.844777 -63.112648
-158.279283 -8.966894 -64.979800
-156.639337 -8.897113 -65.459601
-164.036201 -9.341968 -69.764621
-158.248392 -9.036675 -68.480381
-160.404625 -9.184960 -70.613333
-167.249308 -9.603648 -74.884505
-160.867917 -9.263464 -73.244123
-165.841980 -9.577480 -76.770499
-160.537218 -9.298355 -75.543277
-171.470764 -9.961277 -82.008096
-162.569170 -9.472808 -79.009689
-171.322120 -10.013613 -84.598483
-164.241343 -9.629816 -82.389611
-169.059145 -9.943832 -86.140152
-170.879693 -10.083394 -88.424544
-168.405364 -9.970000 -88.490013
-174.674427 -10.375603 -93.189344
-172.402411 -10.275293 -93.373469
-187.272522 -11.199895 -102.954189
-175.575790 -10.536973 -97.965429
-180.750064 -10.885879 -102.347017
-179.670494 -10.859711 -103.231924
-185.057499 -11.226063 -107.879319
-180.507996 -10.990551 -106.752382
-187.826301 -11.479020 -112.679297
-184.697479 -11.330735 -112.386413
-197.160022 -12.141942 -121.673740
-192.159058 -11.880262 -120.261198
-198.145008 -12.298950 -125.746934
-194.271775 -12.107051 -125.008031
-203.240259 -12.717637 -132.592076
-194.629094 -12.229168 -128.724800
-204.046426 -12.874645 -136.803873
-196.024636 -12.421067 -133.218505
-202.311232 -12.874645 -139.357128
-198.702211 -12.700192 -138.720033
-205.707150 -13.206106 -145.541329
-200.460206 -12.926981 -143.727516
-208.440172 -13.502677 -151.440986
-202.659311 -13.188661 -149.195386
-210.523040 -13.764356 -157.033729
-207.142117 -13.607349 -156.547064
-210.383229 -13.886474 -161.083334
-212.260228 -14.078372 -164.646272
-208.865911 -13.921364 -164.125643
-216.425060 -14.497060 -172.276024
-213.783563 -14.392388 -172.378790
-220.430672 -14.915748 -180.035661
-218.525674 -14.863412 -180.780554
-221.595420 -15.151259 -185.677568
-218.774713 -15.037865 -185.666184
-227.953893 -15.753123 -195.933309
-222.450086 -15.456552 -193.646151
-226.722259 -15.840349 -199.882995
-221.737299 -15.578670 -197.978079
-228.636967 -16.154365 -206.734818
-229.543014 -16.311373 -210.190521
-225.532909 -16.119475 -209.138876
-241.443004 -17.358092 -226.730568
-254.004403 -18.369921 -241.547738
-257.516957 -18.736272 -247.987841
-264.056548 -19.329413 -257.502668
-262.196556 -19.311968 -258.922795
-268.332037 -19.887663 -268.332627
-264.184866 -19.704488 -267.526335
-269.354621 -20.219124 -276.211368
-272.231840 -20.568031 -282.693794
-270.679650 -20.585476 -284.639907
-278.912126 -21.353070 -297.011906
-278.058982 -21.431574 -299.856866
-281.677102 -21.858984 -307.612808
-279.627138 -21.850262 -309.253100
-285.992265 -22.504461 -320.315428
-285.625043 -22.635301 -323.978746
-285.550855 -22.792309 -328.026630
-291.295454 -23.420340 -338.902193
-303.052951 -24.545563 -357.095819
-307.003210 -25.051478 -366.392181
-312.970198 -25.731845 -378.316849
-311.639838 -25.819072 -381.564889
-318.116354 -26.560498 -394.528548
-312.625183 -26.307541 -392.743155
-322.388753 -27.345537 -410.273035
-319.192518 -27.293201 -411.501479
-329.349715 -28.392256 -430.149852
-336.274157 -29.229632 -444.957942
-348.697443 -30.564198 -467.473981
-355.226047 -31.401574 -482.522949
-362.752892 -32.343621 -499.287722
-362.809034 -32.631469 -506.020792
-371.158075 -33.678188 -524.594809
-372.332542 -34.088153 -533.330655
-373.883783 -34.541731 -542.787054
-383.376171 -35.745458 -564.122304
-407.907771 -38.388424 -608.407618
-439.884784 -41.790261 -665.099392
-453.976277 -43.543516 -695.868883
-466.346810 -45.165930 -724.741120
-513.687825 -50.242518 -809.444568
-563.159491 -55.633121 -899.847400
-566.410219 -56.522833 -917.815141
-588.404334 -59.322806 -966.997101
-604.150610 -61.547085 -1007.070006
-617.128143 -63.535851 -1043.509488
-610.056507 -63.483515 -1046.503656
-611.926653 -64.373226 -1065.036083
-615.063818 -65.419945 -1086.239720
-630.122835 -67.775063 -1129.325796
-660.539887 -71.857268 -1201.520949
-705.291812 -77.614223 -1302.239798
-863.966250 -96.193488 -1619.429879
-875.141659 -98.600942 -1665.491198
-881.182024 -100.485036 -1702.886079
-916.481926 -105.797136 -1798.702337
-942.550926 -110.167188 -1878.958739
-920.114940 -108.911125 -1863.353929
-0.436516 -0.052336 -0.898173
-0.430864 -0.052336 -0.900898
-0.425195 -0.052336 -0.903588
-0.419509 -0.052336 -0.906241
-0.413807 -0.052336 -0.908859
-0.408088 -0.052336 -0.911441
240.902653 -18.304786 465.543872
246.593378 -18.967876 483.967122
244.443894 -19.037675 487.293546
249.120877 -19.648417 504.501465
249.004047 -19.892713 512.348772
0.431193 -0.034899 0.901585
270.417726 -22.178630 574.667392
268.690902 -22.335678 580.436316
260.897404 -21.986683 573.017566
260.763300 -22.283329 582.398665
261.326794 -22.649773 593.629762
249.653660 -21.951783 576.916085
245.241615 -21.881984 576.633965
248.935326 -22.545075 595.683576
236.268281 -21.724937 575.509841
223.678058 -20.887349 554.737861
217.244944 -20.608153 548.698631
210.172559 -20.259158 540.737748
204.811807 -20.067211 536.911940
194.778179 -19.404120 520.404594
191.504557 -19.404120 521.618141
185.684389 -19.142374 515.758788
183.271678 -19.229623 519.271330
179.188681 -19.142374 518.051384
174.166039 -18.950427 513.961158
171.405500 -19.002776 516.468101
170.318871 -19.247072 524.188213
165.810557 -19.107474 521.438408
164.905893 -19.386670 530.104191
159.681335 -19.159824 524.915014
158.089137 -19.369221 531.655582
158.091397 -19.788015 544.154890
183.448122 -23.469912 646.569563
205.922546 -26.942411 743.541533
199.161243 -26.663215 737.102348
188.924457 -25.895427 717.078083
180.107229 -25.290502 701.472419
171.291692 -24.656494 684.976980
168.638983 -24.900791 692.836990
160.253106 -24.290050 676.864045
151.140875 -23.533894 656.755690
142.142511 -22.754472 635.910167
134.824773 -22.207713 621.489509
125.808071 -21.341042 598.037741
119.952356 -20.974598 588.534195
113.640821 -20.503454 576.039601
100.281364 -18.688680 525.694428
88.555453 -17.065854 480.611786
82.123088 -16.385314 461.971395
78.881373 -16.315515 460.508179
74.686074 -16.036319 453.106033
71.342596 -15.925804 450.440578
67.560157 -15.704774 444.622295
65.412849 -15.861821 449.488389
61.187346 -15.507010 439.826957
58.510297 -15.530276 440.863194
55.405118 -15.437211 438.578093
51.418457 -15.076583 428.664016
47.708999 -14.762487 420.041570
44.855783 -14.692688 418.345651
42.176221 -14.675238 418.122056
38.513710 -14.291344 407.434291
35.513994 -14.116846 402.690602
32.820049 -14.047047 400.913675
30.300402 -14.047047 401.111975
27.814067 -14.064497 401.792941
24.881108 -13.837650 395.476548
22.574645 -13.948166 398.784752
19.683608 -13.680603 391.266401
17.342011 -13.773668 394.044818
14.746550 -13.663153 390.983513
12.368130 -13.750402 393.565694
9.694141 -13.471206 385.643035
7.336826 -13.593354 389.193579
4.679929 -13.005879 372.410244
2.338882 -13.000063 372.265736
-0.000160 -12.738316 364.777652
-2.313044 -12.854648 368.101687
-4.529551 -12.587085 360.418497
-6.888210 -12.761583 365.378989
-8.978696 -12.476570 357.169383
-11.332538 -12.598718 360.602060
-13.315522 -12.336972 353.033633
-15.584687 -12.377688 354.107829
-17.223458 -11.970527 342.358086
-19.458931 -12.022877 343.739801
-21.105833 -11.737864 335.465166
-23.638807 -11.953078 341.474129
-25.344731 -11.749497 335.505646
-27.506622 -11.772764 336.003818
-29.236781 -11.621532 331.510408
-31.413184 -11.656432 332.315121
-32.932176 -11.458668 326.476567
-34.911794 -11.435402 325.600741
-34.851524 -10.783944 306.838847
-35.528986 -10.417500 296.194897
-36.366385 -10.132487 287.868482
-38.459271 -10.208103 289.780829
-39.338250 -9.969623 282.769435
-41.737824 -10.120854 286.802236
-41.987630 -9.760226 276.324486
-44.139894 -9.853291 278.687448
-43.722875 -9.387965 265.256812
-43.926323 -9.085502 256.439810
-43.379396 -8.655075 244.023191
-45.394696 -8.748141 246.366738
-46.130265 -8.596909 241.822668
-48.293535 -8.713241 244.796361
-48.899258 -8.550377 239.918223
-51.022947 -8.655075 242.540200
-51.168645 -8.428228 235.866455
-51.341554 -8.218831 229.688366
-52.298081 -8.143216 227.251058
-53.187651 -8.061784 224.648796
-53.889036 -7.957085 221.397056
-56.006398 -8.061784 223.962700
-56.480462 -7.930911 219.976409
-54.742445 -7.503392 207.778642
-55.004135 -7.363794 203.571412
-53.748089 -7.032249 194.071998
-55.648376 -7.119497 196.134064
-55.624919 -6.962450 191.461857
-57.254073 -7.014799 192.545485
-56.717578 -6.805402 186.445174
-58.382689 -6.863568 187.675600
-58.551226 -6.747236 184.130406
-61.611436 -6.962450 189.620161
-60.125872 -6.665804 181.166903
-62.225229 -6.770502 183.625110
-62.070986 -6.630904 179.452567
-63.363596 -6.648354 179.530232
-62.966966 -6.491306 174.897182
-62.859110 -6.369158 171.214532
-62.357190 -6.212110 166.604293
-65.718027 -6.438957 172.278643
-63.721713 -6.142311 163.944550
-66.773997 -6.334259 168.651595
-65.029352 -6.072512 161.277116
-68.318685 -6.281909 166.412424
-67.179282 -6.084146 160.754590
-69.035462 -6.159761 162.321940
-68.400215 -6.014347 158.063329
-71.942189 -6.235377 163.423436
-70.653312 -6.037613 157.799419
-71.229270 -6.002713 156.442828
-71.651043 -5.956181 154.782954
-74.466075 -6.107412 158.248233
-73.949724 -5.985264 154.621683
-77.613683 -6.200477 159.696947
-76.255608 -6.014347 154.426965
-80.361164 -6.258643 160.197869
-79.626886 -6.124862 156.276342
-80.377571 -6.107412 155.329152
-79.957335 -6.002713 152.166987
-83.891157 -6.223744 157.246039
-84.401552 -6.188844 155.837054
-82.971729 -6.014347 150.924808
-87.408210 -6.264460 156.655072
-84.205136 -5.967814 148.710727
-87.627255 -6.142311 152.511430
-85.060559 -5.898015 145.914066
-87.841029 -6.025980 148.530869
-85.859152 -5.828216 143.119663
-89.613955 -6.020163 147.273034
-86.426158 -5.746784 140.045010
-89.601859 -5.898015 143.170249
-87.554395 -5.706068 137.963469
-91.393868 -5.898015 142.033004
-88.644065 -5.665352 135.875843
-91.885054 -5.816583 138.928334
-87.932828 -5.514120 131.154155
-92.125602 -5.723517 135.558529
-88.440126 -5.444321 128.392770
-92.868289 -5.665352 133.024418
-91.970604 -5.560653 129.990762
-89.291523 -5.351256 124.537139
-92.030338 -5.467588 126.668729
-90.059417 -5.304723 122.332176
-92.818074 -5.421055 124.434166
-90.685694 -5.252374 119.994865
-92.754230 -5.327990 121.141968
-94.942798 -5.409422 122.399360
-92.828386 -5.246558 118.133295
-97.925665 -5.490854 123.021106
-93.260009 -5.188392 115.660836
-97.672630 -5.391972 119.587767
-93.644318 -5.130226 113.196389
-93.711837 -5.095327 111.839748
-91.179381 -4.920829 107.438847
-95.761258 -5.130226 111.411230
-88.366417 -4.699799 101.510587
-85.587779 -4.519485 97.080154
-85.530452 -4.484585 95.794991
-82.444131 -4.292638 91.178607
-89.989585 -4.653266 98.275121
-83.356863 -4.281005 89.891142
-84.832191 -4.327538 90.336990
-82.643339 -4.187940 86.905349
-87.347134 -4.397337 90.703592
-83.031130 -4.153040 85.144488
-85.202985 -4.234472 86.280348
-83.034488 -4.100691 83.034379
-87.110080 -4.275188 86.022129
-83.713596 -4.083241 81.635538
-89.263966 -4.327538 85.960554
-86.000193 -4.144315 81.782357
-83.294694 -3.990176 78.218819
-89.891252 -4.281005 83.356745
-84.025330 -3.978543 76.940985
-90.684523 -4.269372 81.997160
-85.358283 -3.995992 76.211847
-93.207052 -4.339171 82.172957
-90.455083 -4.187940 78.742232
-96.253349 -4.432236 82.732388
-96.771269 -4.432236 82.125982
-92.944551 -4.234472 77.879121
-96.512219 -4.374070 79.841740
-92.109771 -4.153040 75.229930
-99.841860 -4.478769 80.504585
-92.265926 -4.118141 73.444127
-97.833329 -4.344987 76.876594
-93.181543 -4.118141 72.278910
-97.601379 -4.292638 74.729807
-93.816677 -4.106507 70.901426
-98.933270 -4.310088 73.796214
-95.236765 -4.129774 70.111921
-96.214425 -4.153040 69.903768
-95.839541 -4.118141 68.715524
-97.901084 -4.187940 69.266434
-97.514910 -4.153040 68.077857
-102.055885 -4.327538 70.298427
-98.362680 -4.153040 66.847106
-100.025884 -4.205389 67.062563
-100.862058 -4.222839 66.708416
-107.138334 -4.467136 69.895795
-101.272139 -4.205389 65.165317
-105.054839 -4.344987 66.669722
-101.659432 -4.187940 63.622488
-106.593050 -4.374070 65.781713
-103.304646 -4.222839 62.859508
-107.696918 -4.385703 64.608441
-103.512906 -4.199573 61.217260
-109.651483 -4.432236 63.921104
-104.851687 -4.222839 60.243600
-110.735946 -4.443869 62.702314
-106.473163 -4.257739 59.408225
-111.223198 -4.432236 61.145364
-108.675918 -4.315904 58.858834
-114.921952 -4.548568 61.310955
-112.355935 -4.432236 59.038117
-120.269226 -4.728882 62.235046
-113.979403 -4.467136 58.075299
-118.510769 -4.630000 59.449181
-115.596276 -4.502035 57.080932
-121.645407 -4.723065 59.120206
-116.905487 -4.525301 55.911299
-121.775859 -4.699799 57.303257
-117.901151 -4.536935 54.577788
-122.183135 -4.688166 55.630451
-117.665533 -4.502035 52.683528
-122.262753 -4.664899 53.822260
-120.458389 -4.583467 52.126890
-120.476975 -4.571834 51.238626
-119.567056 -4.525301 49.966842
-121.111330 -4.571834 49.720661
-120.957901 -4.554384 48.771854
-121.107086 -4.548568 47.949579
-126.684490 -4.746332 49.239338
-119.054407 -4.449686 45.414740
-122.613333 -4.571834 45.891927
-119.146609 -4.432236 43.742895
-119.889254 -4.449686 43.162681
-119.686877 -4.432236 42.242240
-120.422172 -4.449686 41.652740
-119.261723 -4.397337 40.414167
-123.781629 -4.554384 41.080603
-119.760153 -4.397337 38.912328
-121.907079 -4.467136 38.764789
-120.239671 -4.397337 37.404344
-122.703283 -4.478769 37.326791
-126.128518 -4.595100 37.504575
-121.403179 -4.414786 35.270779
-124.025999 -4.502035 35.189251
-120.873671 -4.379887 33.475697
-125.423189 -4.536935 33.888638
-120.801578 -4.362437 31.826843
-127.129790 -4.583467 32.641273
-123.131049 -4.432236 30.791234
-124.940484 -4.490402 30.410899
-120.590733 -4.327538 28.550788
-119.793808 -4.292638 27.568402
-126.466809 -4.525301 28.268572
-120.619112 -4.310088 26.166829
-119.803156 -4.275188 25.202709
-128.772468 -4.589284 26.245758
-123.542121 -4.397337 24.372275
-126.965114 -4.513668 24.219782
-121.872937 -4.327538 22.455726
-122.503606 -4.344987 21.776995
-131.339241 -4.653266 22.497303
-121.781500 -4.310088 20.073353
-127.663226 -4.513668 20.219759
-123.012177 -4.344987 18.691589
-123.621677 -4.362437 17.990278
-123.732272 -4.362437 17.213190
-132.424083 -4.664899 17.574945
-124.434560 -4.379887 15.719634
-129.657641 -4.560201 15.552439
-124.125766 -4.362437 14.098349
-131.830227 -4.630000 14.135018
-125.287471 -4.397337 12.637766
-132.660743 -4.653266 12.540018
-130.745862 -4.583467 11.530650
-125.005386 -4.379887 10.233277
-124.568940 -4.362437 9.410008
-133.598650 -4.676533 9.248291
-129.331973 -4.525301 8.136766
-130.710935 -4.571834 7.399305
-129.756718 -4.536935 6.527670
-130.294383 -4.554384 5.734231
-132.491648 -4.630000 4.997070
-126.527044 -4.420603 3.976162
-135.374694 -4.728882 3.402935
-127.233161 -4.443869 2.398461
-131.409519 -4.589284 1.651312
-129.585120 -4.525301 0.814104
-134.418066 -4.693982 -0.000118
-127.919500 -4.467136 -0.803865
-134.907108 -4.711432 -1.695501
-130.230796 -4.548568 -2.455199
-135.541200 -4.734698 -3.407360
-129.856696 -4.536935 -4.081027
-137.485043 -4.804497 -5.185643
-132.124817 -4.618367 -5.815021
-143.231441 -5.008078 -7.205795
-132.706509 -4.641633 -7.512505
-143.129584 -5.008078 -9.005079
-133.100131 -4.659083 -9.214017
-135.198805 -4.734698 -10.213233
-132.973838 -4.659083 -10.885831
-139.705582 -4.897563 -12.321067
-133.324025 -4.676533 -12.602953
-140.534069 -4.932462 -14.175942
-141.104689 -4.955729 -15.129690
-135.545309 -4.763781 -15.395636
-140.572668 -4.944095 -16.861948
-134.845390 -4.746332 -17.035060
-138.698509 -4.885930 -18.407917
-136.930348 -4.827764 -19.049505
-142.412135 -5.025528 -20.725051
-138.326908 -4.885930 -21.018898
-142.469488 -5.037161 -22.565085
-136.079693 -4.816131 -22.430382
-142.174686 -5.037161 -24.353581
-135.131111 -4.792864 -24.021983
-143.167893 -5.083693 -26.379693
-142.672090 -5.072060 -27.216295
-136.288483 -4.851030 -26.887115
-136.116857 -4.851030 -27.742904
-140.829780 -5.025528 -29.626289
-133.804146 -4.781231 -29.027406
-140.446376 -5.025528 -31.393623
-140.895642 -5.048794 -32.424872
-135.178266 -4.851030 -32.004750
-137.563946 -4.944095 -33.483745
-134.765419 -4.851030 -33.700879
-140.681633 -5.072060 -36.121047
-135.941979 -4.909196 -35.816047
-141.824616 -5.130226 -38.320479
-134.518043 -4.874296 -37.254731
-139.088518 -5.048794 -39.463125
-134.679083 -4.897563 -39.128031
-140.816829 -5.130226 -41.872444
-139.276120 -5.083693 -42.368577
-133.917656 -4.897563 -41.659571
-137.780319 -5.048794 -43.812530
-135.918191 -4.990628 -44.162643
-139.748271 -5.141859 -46.379879
-136.930045 -5.048794 -46.401691
-141.043400 -5.211658 -48.785679
-139.948741 -5.182575 -49.393731
-146.374500 -5.432688 -52.698224
-145.727779 -5.421055 -53.502065
-146.012728 -5.444321 -54.650185
-145.355217 -5.432688 -55.447794
-150.592979 -5.642085 -58.532321
-153.319605 -5.758417 -60.703701
-162.821887 -6.130678 -65.652310
-157.167261 -5.932914 -64.523272
-161.984041 -6.130678 -67.693153
-159.716176 -6.060879 -67.927314
-160.509153 -6.107412 -69.458702
-165.862559 -6.328442 -73.016026
-162.360064 -6.212110 -72.695386
-167.357411 -6.421507 -76.198828
-162.340683 -6.247010 -75.149701
-167.290954 -6.456407 -78.721353
-163.487227 -6.328442 -78.189867
-173.479385 -6.735603 -84.312126
-165.777461 -6.456407 -81.860542
-167.939736 -6.561105 -84.244863
-168.297561 -6.596005 -85.752105
-171.749624 -6.753053 -88.874704
-172.072512 -6.787952 -90.416946
-175.028026 -6.927550 -93.377991
-173.559084 -6.892651 -93.999925
-176.906018 -7.049698 -97.255141
-176.727823 -7.067148 -98.608225
-185.236123 -7.433593 -104.887180
-186.884223 -7.526658 -107.376662
-182.608385 -7.381244 -106.451608
-188.387559 -7.642990 -111.412353
-183.684469 -7.480125 -110.194561
-191.810625 -7.840754 -116.714685
-190.506520 -7.817487 -117.567652
-197.106127 -8.119950 -123.357282
-195.202080 -8.073417 -123.879291
-198.341890 -8.236281 -127.627028
-200.326134 -8.352613 -130.690927
-196.722463 -8.236281 -130.109323
-203.371889 -8.550377 -136.351626
-197.000649 -8.317713 -133.881805
-202.465461 -8.585276 -139.463365
-198.853689 -8.468945 -138.825784
-206.679809 -8.841206 -146.229502
-202.237421 -8.689975 -145.001758
-210.620383 -9.091319 -153.025005
-203.618622 -8.829573 -149.901619
-207.879756 -9.056419 -155.062046
-205.439645 -8.992437 -155.260425
-212.659628 -9.353065 -162.826296
-206.367882 -9.120402 -160.075690
-210.858691 -9.364698 -165.691558
-209.552827 -9.353065 -166.805674
-214.983855 -9.643894 -173.346614
-214.793485 -9.684610 -175.431517
-222.285799 -10.074321 -183.891207
-218.317236 -9.946357 -182.930737
-222.243395 -10.179020 -188.609929
-221.306578 -10.190653 -190.219739
-226.388624 -10.481482 -197.074708
-223.958955 -10.426225 -197.446810
-223.273062 -10.452399 -199.349284
-224.239982 -10.557098 -202.759040
-224.804249 -10.644346 -205.851276
-229.002477 -10.906093 -212.356240
-238.955811 -11.447035 -224.394933
-256.008567 -12.336972 -243.453615
-258.793076 -12.546369 -249.216738
-265.092598 -12.930264 -258.513003
-263.107539 -12.912814 -259.822405
-268.301038 -13.250176 -268.301628
-265.439595 -13.192010 -268.796935
-269.094800 -13.459573 -275.944933
-268.048916 -13.494472 -278.350119
-272.952079 -13.831834 -287.029536
-275.019975 -14.029598 -292.867178
-281.102367 -14.436758 -303.138831
-284.141570 -14.692688 -310.304194
-280.845723 -14.622889 -310.600791
-281.883853 -14.779937 -315.713948
-288.155964 -15.216181 -326.849519
-286.096633 -15.216181 -328.653593
-293.471826 -15.722223 -341.434253
-299.835121 -16.181733 -353.304160
-307.130273 -16.699409 -366.543825
-311.510028 -17.065854 -376.551802
-309.770133 -17.100753 -379.275664
-315.535979 -17.554447 -391.328362
-312.137367 -17.502098 -392.130324
-316.356785 -17.880175 -402.596732
-317.291986 -18.077939 -409.051322
-325.246617 -18.682864 -424.790968
-336.229231 -19.473919 -444.898495
-349.560808 -20.416206 -468.631433
-352.830623 -20.782650 -479.269113
-363.323145 -21.585339 -500.072610
-363.959119 -21.812185 -507.624850
-368.651126 -22.289145 -521.051487
-370.423402 -22.597424 -530.595995
-376.153037 -23.155816 -546.081451
-390.409313 -24.255150 -574.471284
-412.392750 -25.860527 -615.097109
-428.366984 -27.116909 -647.684646
-454.595390 -29.053831 -696.817879
-468.865486 -30.257864 -728.655349
-499.085445 -32.526331 -786.434840
-539.200206 -35.492788 -861.563927
-573.665113 -38.145150 -929.571022
-577.164153 -38.773341 -948.524732
-601.783488 -40.849861 -1003.124206
-609.458917 -41.809597 -1030.541501
-616.813018 -42.769333 -1058.093916
-605.920699 -42.472687 -1054.582940
-619.964540 -43.938466 -1094.894689
-631.090154 -45.229748 -1131.059454
-640.822156 -46.451230 -1165.654429
-692.027018 -50.743868 -1277.747889
-784.418929 -58.194911 -1470.325320
-882.316946 -66.239245 -1679.146560
-903.440827 -68.647310 -1745.901263
-924.666857 -71.125174 -1814.766215
-928.033761 -72.276858 -1850.019025
-924.798765 -72.939948 -1872.839291
-302.299103 -24.150452 -622.009652
-0.431192 -0.034899 -0.901585
-554.663803 -45.491494 -1178.724242
-0.419829 -0.034899 -0.906932
-0.414122 -0.034899 -0.909552
-0.408399 -0.034899 -0.912136
-586.272808 -50.813667 -1331.780074
-231.792434 -20.381306 -535.642483
-222.750894 -19.875263 -523.753055
-219.070333 -19.840364 -524.220182
-214.443843 -19.718216 -522.350486
-207.171150 -19.345954 -513.800830
-200.872949 -19.055125 -507.348954
-199.129450 -19.194723 -512.327068
-196.143956 -19.217990 -514.190621
-194.660948 -19.392487 -520.092772
-189.609723 -19.212173 -516.458416
-187.207323 -19.299422 -519.990337
-182.605990 -19.159824 -517.386658
-704.338768 -75.243315 -2036.315630
-673.247821 -73.254044 -1986.749158
-0.314793 -0.034899 -0.948518
-566.389780 -64.005677 -1743.175806
-531.349438 -61.231167 -1670.984371
-491.599255 -57.793567 -1580.293035
-461.591159 -55.385501 -1517.377688
-431.112075 -52.820388 -1449.839521
-402.894845 -50.429773 -1386.779572
-383.534960 -49.068692 -1351.787409
-360.896787 -47.219019 -1303.124274
-340.971280 -45.648542 -1261.950394
-325.651716 -44.636456 -1236.041887
-312.411239 -43.868667 -1216.767750
-300.153389 -43.205577 -1200.285475
-284.806223 -42.053894 -1170.103365
-270.310987 -40.972009 -1141.722061
-252.261599 -39.279384 -1096.162153
-239.156013 -38.284748 -1069.928820
-228.191239 -37.586758 -1051.876891
-218.903071 -37.133064 -1040.576081
-208.468711 -36.452524 -1022.835402
-193.333608 -34.882047 -980.002862
-180.056185 -33.555866 -943.894075
-169.323013 -32.631029 -918.961334
-160.921975 -32.107537 -905.247604
-146.794528 -30.362562 -856.988612
-132.873863 -28.530339 -806.124560
-123.741456 -27.622952 -781.279255
-118.905189 -27.640401 -782.535344
-111.611348 -27.064560 -766.948933
-104.724717 -26.541067 -752.787191
-97.494602 -25.877977 -734.606958
-92.188129 -25.686030 -729.751723
-86.014195 -25.220703 -717.086177
-81.770109 -25.302135 -719.929477
-75.256234 -24.650678 -701.880062
-69.708009 -24.255150 -691.069809
-63.295447 -23.487361 -669.605130
-59.525953 -23.661859 -674.967242
-53.938457 -23.086017 -658.892957
-49.283061 -22.847537 -652.409085
-44.274187 -22.388027 -639.578629
-40.066495 -22.283329 -636.851929
-35.094649 -21.684221 -619.962314
-30.855525 -21.445741 -613.350036
-26.217551 -20.823366 -595.726564
-22.430053 -20.782650 -594.714406
-18.331944 -20.381306 -583.356274
-14.666270 -20.381306 -583.459941
-10.679810 -19.788015 -566.553948
-6.824768 -18.967876 -543.126037
-3.258282 -18.112839 -518.673605
0.000667 -17.647512 -505.358628
3.102635 -17.240351 -493.689319
6.150070 -17.089120 -489.329728
9.145986 -16.943706 -485.118039
12.080850 -16.786658 -480.555159
15.047688 -16.728492 -478.804938
17.854893 -16.542361 -473.374643
20.982622 -16.664510 -476.747600
23.584331 -16.391130 -468.787679
26.519913 -16.385314 -468.463943
28.772527 -16.001419 -457.316462
31.035675 -15.693140 -448.319778
32.860704 -15.233630 -434.994667
34.954443 -14.960251 -426.977153
36.143929 -14.366959 -409.825147
38.514427 -14.291344 -407.434223
39.552389 -13.762035 -392.103293
42.778842 -14.012148 -398.968521
44.062894 -13.634070 -387.934296
46.539147 -13.645703 -387.980544
48.099159 -13.401407 -380.739902
51.213625 -13.593354 -385.879042
53.017463 -13.436306 -381.095282
56.418365 -13.680603 -387.677455
57.802137 -13.436306 -380.398973
59.878417 -13.366507 -378.054112
61.927526 -13.296708 -375.698255
65.046164 -13.453756 -379.734437
65.710782 -13.110578 -369.642598
68.333831 -13.168743 -370.860508
69.102082 -12.877914 -362.243097
70.345102 -12.691784 -356.572475
71.253512 -12.459120 -349.595062
73.448662 -12.459120 -349.140465
74.687456 -12.302073 -344.277058
77.902848 -12.470753 -348.515047
78.148573 -12.168291 -339.577940
81.355151 -12.331156 -343.618577
82.567125 -12.191558 -339.216470
83.646213 -12.040326 -334.489673
84.006431 -11.796030 -327.181560
85.466396 -11.714598 -324.392316
87.198782 -11.673882 -322.723322
88.202273 -11.540100 -318.477047
90.974466 -11.638982 -320.640657
91.174956 -11.412135 -313.824618
94.711620 -11.604083 -318.514214
94.093280 -11.289987 -309.307680
95.985371 -11.284171 -308.551326
96.761216 -11.150389 -304.291284
98.516798 -11.132939 -303.202075
100.419916 -11.132939 -302.577095
101.356822 -11.028241 -299.100606
103.778597 -11.086407 -300.032007
104.442094 -10.958442 -295.918505
104.268134 -10.749045 -289.614596
106.545012 -10.795578 -290.204630
107.198567 -10.679246 -286.409534
109.589664 -10.737412 -287.286602
109.159885 -10.522198 -280.848096
106.323570 -10.085955 -268.541565
104.520585 -9.760226 -259.217341
102.478248 -9.422864 -249.618546
105.778691 -9.579912 -253.119228
105.085358 -9.376331 -247.084863
108.355686 -9.527563 -250.394231
107.913499 -9.353065 -245.135059
108.634785 -9.283266 -242.627914
108.914734 -9.178568 -239.211903
111.255250 -9.248367 -240.336716
111.061039 -9.108769 -236.015838
114.410278 -9.260000 -239.220230
113.144354 -9.038970 -232.803892
115.637338 -9.120402 -234.179281
115.612733 -9.004070 -230.470438
117.285388 -9.021520 -230.184708
117.351453 -8.916821 -226.780459
120.401073 -9.038970 -229.135066
120.740742 -8.957537 -226.316622
119.463293 -8.759774 -220.573770
123.254139 -8.934271 -224.197672
122.387918 -8.771407 -219.346083
125.897543 -8.922638 -222.341269
