# .PCD v.7 - Point Cloud Data file format
VERSION .7
FIELDS x y z
SIZE 4 4 4
TYPE F F F
COUNT 1 1 1
WIDTH 1456
HEIGHT 1
VIEWPOINT 0 0 0 1 0 0 0
POINTS 1456
DATA ascii
-91.296520 177.475165 138.038482
-87.197852 171.136766 133.659051
-87.340449 173.087043 135.733683
-87.825813 175.768673 138.391153
-83.939480 169.674059 134.122621
-86.796186 177.231380 140.644603
-82.247462 169.674059 135.166819
-84.437242 176.012458 140.749464
-80.195290 168.942705 135.602647
-81.974970 174.549750 140.621004
-80.636794 173.574612 140.344835
-79.081316 172.111904 139.661790
-79.863760 175.768673 143.133730
-76.060613 169.308382 138.353551
-76.326595 171.868120 140.927642
-74.797580 170.405412 140.200989
-77.404759 178.450303 147.309173
-73.500052 171.502443 142.038390
-75.753968 178.937872 148.675324
-72.779678 174.062181 145.084374
-73.275805 177.475165 148.392498
-71.099851 174.427858 146.294168
-72.288071 179.669226 151.147329
-71.724138 180.644364 152.421329
-68.950549 176.012458 148.949257
-71.074859 183.935456 156.103691
-67.166301 176.256242 150.011417
-67.733732 180.278687 153.863532
-65.817657 177.718949 152.095401
-66.328762 181.741395 155.957721
-64.164191 178.450303 153.539721
-65.183948 184.057348 158.776751
-61.549632 176.500027 152.647179
-63.183606 184.057348 159.583319
-59.667780 176.621919 153.514507
-60.119972 180.888149 157.603440
-58.251971 178.206519 155.636079
-56.724496 176.500027 154.505178
-56.753680 179.669226 157.639145
-53.340941 171.868120 151.132701
-54.099486 177.475165 156.406274
-51.072784 170.649197 150.714521
-51.198917 174.305966 154.268853
-48.893867 169.674059 150.479579
-48.877431 172.965150 153.708502
-47.876930 172.843258 153.904036
-45.949632 169.308382 151.048182
-45.680007 171.868120 153.621894
-43.635670 167.723782 150.194670
-43.621879 171.380551 153.746381
-41.380818 166.261075 149.416623
-41.686451 171.380551 154.282396
-40.194989 169.186490 152.562793
-39.772708 171.502443 154.904144
-38.274705 169.186490 153.055839
-37.258513 168.942705 153.072420
-36.819753 171.380551 155.515670
-35.179104 168.211351 152.863900
-34.565082 169.917843 154.634923
-32.725273 165.529721 150.850077
-32.572404 169.674059 154.834596
-31.667014 170.039736 155.370327
-30.008171 166.261075 152.109201
-29.456535 168.577028 154.416152
-27.991405 165.651613 151.915352
-27.334761 167.479998 153.766906
-26.022648 165.285937 151.918995
-25.677657 169.308382 155.780550
-24.289387 166.504859 153.356671
-23.974220 171.136766 157.776564
-22.687767 168.942705 155.899415
-21.175266 164.798367 152.211095
-20.786755 169.430274 156.622915
-19.260903 164.798367 152.465166
-18.952357 170.649197 158.000330
-17.523091 166.504859 154.276324
-17.050249 171.502443 159.017141
-15.400540 164.554583 152.674859
-15.039989 171.380551 159.105678
-13.520748 165.042152 153.309236
-12.816893 168.455136 156.563210
-11.558941 164.554583 153.013660
-10.691504 166.017290 154.444006
-9.870780 168.577028 156.890418
-8.737061 165.773506 154.339193
-8.172644 174.427858 162.451163
-6.896893 168.211351 156.707926
-6.014958 171.136766 159.474222
-4.980706 170.039736 158.486374
-4.190483 178.815980 166.695936
-3.065896 174.427858 162.627712
-2.071161 176.743811 164.803256
-1.060635 181.010041 168.791262
-0.000073 177.475165 165.498269
1.059773 180.888149 168.677599
2.176709 185.763840 173.213907
3.140736 178.694088 166.605332
4.327443 184.666810 172.150204
5.255480 179.425441 167.234372
6.554609 186.495194 173.786017
7.416511 180.888149 168.517805
8.715050 186.007625 173.235839
9.559224 181.375718 168.865243
11.048268 188.689255 175.608373
11.680437 181.375718 168.731788
13.151353 187.226548 174.095554
13.836902 181.863287 169.024839
15.338007 187.226548 173.916547
15.938390 181.619503 168.611294
17.545054 187.470332 173.936262
18.140734 182.472749 169.188829
19.755015 187.714117 173.927938
20.224724 182.107072 168.608941
22.352180 191.248993 176.936296
22.311966 181.863287 168.116127
24.620790 191.614670 176.979194
24.553712 182.838425 168.722332
26.689094 190.517639 175.644446
26.849758 184.057348 169.523137
28.431984 187.470332 172.491375
28.785967 182.838425 168.052011
30.995158 189.908178 174.358716
31.266189 185.032487 169.689140
32.672536 186.982763 171.275790
33.528041 185.763840 169.951952
34.390910 184.666810 168.735547
35.590819 185.398163 169.183524
37.351964 188.933040 172.177956
38.011522 186.860871 170.054077
39.563595 189.176824 171.916537
40.066865 186.495194 169.231170
42.177775 191.248993 173.283317
42.521172 187.957901 170.037576
44.832480 193.321162 174.611249
45.088897 189.786286 171.138561
45.659265 187.714117 168.986448
47.417898 190.517639 171.215718
48.275557 189.664393 170.148953
50.675574 194.783869 174.426704
50.053477 188.323578 168.330417
52.201806 192.346024 171.601220
52.468645 189.420609 168.664977
54.560702 193.077377 171.581631
54.092206 187.714117 166.478892
56.497677 192.346024 170.235190
56.033994 187.226548 165.355409
58.929648 193.321162 170.371172
59.318005 191.127101 168.068191
60.988880 193.077377 169.403314
60.641788 188.689255 165.175478
63.989361 195.759007 170.965544
62.955674 189.420609 165.037620
66.791525 197.709284 171.843075
65.150104 189.786286 164.550539
69.455718 199.171991 172.255234
67.342213 190.151962 164.034318
70.738242 196.734146 169.271312
70.554794 193.321162 165.894727
73.536863 198.562530 169.933815
72.817051 193.808731 165.411163
75.666452 198.562530 168.996330
75.643475 195.759007 166.138256
78.930084 201.487945 170.507771
77.821996 196.002792 165.380296
79.300947 197.099823 165.810946
80.043084 196.368469 164.696020
82.636441 200.147130 167.349304
82.870832 198.196853 165.201188
85.455283 201.853622 167.715563
86.193945 201.122268 166.569617
86.604360 199.659561 164.817307
88.761789 202.219298 166.375930
87.585979 197.221715 161.717045
91.228782 203.072544 165.944656
89.389671 196.734146 160.206625
92.634769 201.609837 163.598241
91.565657 197.099823 159.366371
94.797727 201.853622 162.617669
93.734615 197.465499 158.496683
97.067601 202.341191 161.803485
95.718890 197.465499 157.306295
101.540648 207.338774 164.536863
99.316185 200.756591 158.692585
99.884974 199.903345 157.393633
103.332221 204.779036 160.586420
101.854903 199.903345 156.126047
105.216591 204.535252 159.085650
102.669384 197.709284 153.134411
106.696241 203.560114 156.998843
107.422664 203.072544 155.950924
106.188153 198.928207 152.104059
109.899073 204.047683 155.331056
107.296327 197.465499 149.649172
111.975915 204.291467 154.121711
109.303129 197.709284 148.472139
113.767851 204.047683 152.520226
111.982600 199.171991 148.175098
113.602408 200.390914 148.371070
115.925740 202.828760 149.450643
117.143392 203.316329 149.076813
115.104570 198.196853 144.602716
120.434396 205.754175 149.362714
117.200174 198.684422 143.497029
122.011971 205.266606 147.487211
118.702100 198.196853 141.664459
124.002765 205.510390 146.115686
124.029285 204.047683 144.299271
121.798958 198.928207 139.916341
127.185803 206.241744 144.264045
123.698942 199.171991 138.544340
128.188128 204.961875 141.769165
129.882362 206.241744 141.841162
127.293054 200.756591 137.271699
130.720769 204.779036 139.203544
129.712928 201.853622 136.402609
132.932756 205.510390 138.041160
132.607096 203.682006 135.982530
136.813319 208.801482 138.543520
134.546511 204.047683 134.546570
139.513992 210.264189 137.771792
140.132745 209.898512 136.654412
137.877352 205.266606 132.775127
143.486260 212.336358 136.449290
139.866361 205.754175 131.343311
146.189716 213.799065 135.562916
146.242203 212.641089 133.912464
142.907308 206.607421 129.217355
148.040589 212.823927 132.177760
145.926606 208.618643 128.651661
149.175453 212.092573 129.859248
149.126431 210.873651 128.178478
146.982273 206.729313 124.738315
151.770847 212.336358 127.170459
148.888460 207.216882 123.171295
152.300473 210.873651 124.390435
151.043876 208.070128 121.790063
150.738940 206.607421 119.989148
155.154231 211.605004 121.919090
153.941295 208.923374 119.409154
159.923022 215.993127 122.447434
156.971242 210.995543 118.630351
161.266852 215.749342 120.292243
159.822608 212.823927 117.659296
165.156626 218.918541 119.993357
165.353045 218.187188 118.555891
167.022589 219.406110 118.171120
167.202572 218.674757 116.728962
168.307129 219.162326 115.934018
168.374158 218.309080 114.427001
167.673634 216.480696 112.417352
176.340419 226.719648 116.628718
170.596217 218.430972 111.295189
176.262664 224.769371 113.419491
175.436268 222.819094 111.335280
173.723529 219.771787 108.723258
179.529886 226.232078 110.793402
175.658650 220.503141 106.886171
180.713002 225.988294 108.411725
177.085754 220.625033 104.728259
181.668243 225.500725 105.903338
181.344496 224.281802 104.193530
181.204294 223.306664 102.604007
184.227647 226.232078 102.792664
179.291902 219.406110 98.566590
184.705209 225.256940 100.036477
178.510601 216.968265 95.235753
184.538993 223.550448 96.967356
179.592291 216.846373 92.932823
183.919924 221.356387 93.711913
180.745909 216.846373 90.668721
182.535042 218.309080 90.135199
185.653575 221.356387 90.228660
180.679546 214.774204 86.412119
185.538553 219.893680 87.307844
179.791279 212.458250 83.227626
182.896873 215.505557 83.273843
184.246423 216.480696 82.494629
179.767569 210.629866 79.137101
182.973514 213.799065 79.179735
181.375412 211.361220 77.138802
184.583305 214.530419 77.137198
180.437717 209.167159 74.076514
186.592234 215.749342 75.236692
183.890744 212.092573 72.807518
181.166219 208.435805 70.415313
186.702759 214.286635 71.220208
182.036757 208.435805 68.133210
186.302544 212.823927 68.398378
181.916030 207.338774 65.493821
188.433567 214.286635 66.505856
183.906306 208.679590 63.611403
187.747260 212.580143 63.622014
185.985693 210.142297 61.725047
181.289001 204.413360 58.904385
184.905179 208.070128 58.797505
178.758802 200.756591 55.608739
183.563258 205.754175 55.840796
177.482339 198.562530 52.774909
178.465347 199.293884 51.848992
178.787599 199.293884 50.726644
175.487874 195.271438 48.601147
177.106555 196.734146 47.853359
175.095502 194.174408 46.131492
182.648190 202.219298 46.896098
174.668930 193.077377 43.679413
181.124672 199.903345 44.086472
175.535842 193.443054 41.559630
177.787380 195.637115 40.914749
175.378649 192.711700 39.201784
179.953717 197.465499 39.038906
174.856328 191.614670 36.784276
179.539061 196.490361 36.592915
171.290142 187.226548 33.792117
170.382551 186.007625 32.502219
168.124141 183.325995 30.977905
166.189136 181.010041 29.542954
170.068622 185.032487 29.131474
165.762181 180.156795 27.322877
169.298592 183.813564 26.814270
164.294410 178.206519 24.964535
168.947285 183.082210 24.586525
163.919650 177.475165 22.804061
162.932912 176.256242 21.624135
167.801908 181.375718 21.198317
162.288919 175.281104 19.466707
166.699755 179.913011 18.934101
160.712427 173.330827 17.231951
163.192468 175.890565 16.461394
161.255761 173.696504 15.243162
167.122926 179.913011 14.738940
160.754851 172.965150 13.159967
168.655062 181.375718 12.740448
165.103142 177.475165 11.429318
162.675969 174.793535 10.234707
166.595544 178.937872 9.430813
160.067187 171.868120 8.052640
166.473786 178.694088 7.326626
167.993147 180.278687 6.336196
161.099414 172.843258 5.062754
166.127786 178.206519 4.176127
159.559266 171.136766 3.007978
165.485202 177.475165 2.079658
157.993168 169.430274 0.992714
160.610614 172.233797 0.000283
157.311185 168.698921 -0.988152
158.552103 170.039736 -1.992251
159.559271 171.136766 -3.007698
155.446526 166.748644 -3.907348
160.644981 172.355689 -5.048190
155.612324 166.992429 -5.868955
161.931539 173.818396 -7.126434
155.980379 167.479998 -7.846766
160.240417 172.111904 -9.070773
157.457650 169.186490 -9.906120
159.433411 171.380551 -11.036547
160.834385 172.965150 -12.149378
156.789814 168.698921 -12.835097
162.593874 175.037319 -14.339224
155.937176 167.967567 -14.740130
161.043739 173.574612 -16.244363
160.034346 172.599474 -17.158960
161.052777 173.818396 -18.292419
161.160379 174.062181 -19.331050
160.810197 173.818396 -20.314771
164.285091 177.718949 -21.803300
156.714429 169.674059 -21.801409
160.623691 174.062181 -23.374922
155.529086 168.698921 -23.632365
163.011687 176.987596 -25.818228
154.098310 167.479998 -25.400022
160.209620 174.305966 -27.442411
155.557556 169.430274 -27.652727
158.734281 173.087043 -29.247477
158.100769 172.599474 -30.159055
154.228091 168.577028 -30.425834
157.542241 172.416635 -32.109325
153.499886 168.211351 -32.291270
157.459563 172.782312 -34.158766
156.631721 172.111904 -35.011058
151.867038 167.114321 -34.949341
152.971753 168.577028 -36.217102
151.084547 166.748644 -36.774304
157.246215 173.818396 -39.322225
151.271083 167.479998 -38.839540
155.420687 172.355689 -40.947579
153.898427 170.953928 -41.582341
147.883112 164.554583 -40.955763
153.527776 171.136766 -43.559491
146.483558 163.579445 -42.557141
147.956502 165.529721 -43.995029
155.941856 174.793535 -47.437938
146.523688 164.554583 -45.580676
147.750911 166.261075 -46.982632
145.290731 163.823229 -47.207552
152.434999 172.233797 -50.589924
145.116661 164.310798 -49.175475
148.886855 168.942705 -51.498222
147.488481 167.723782 -52.054381
145.340413 165.651613 -52.325495
147.036124 167.967567 -53.981966
142.435872 163.091875 -53.310998
144.434541 165.773506 -55.096152
139.847703 160.897814 -54.355434
144.259218 166.382967 -57.115989
139.153629 160.897814 -56.108474
144.476458 167.479998 -59.312759
139.276596 161.872953 -58.203277
142.255331 165.773506 -60.500771
137.073763 160.166461 -59.316847
142.524167 166.992429 -62.741548
139.222351 163.579445 -62.335224
136.552073 160.897814 -62.172539
139.459557 164.798367 -64.557271
132.983119 157.606723 -62.576840
135.766129 161.385383 -64.931456
131.266186 156.509692 -63.795804
137.181675 164.067014 -67.739557
130.454161 156.509692 -65.440264
134.091519 161.385383 -68.322766
129.015828 155.778338 -66.760958
132.819900 160.897814 -69.790884
131.175328 159.435107 -69.981997
130.733032 159.435107 -70.804809
133.273776 163.091875 -73.267597
125.465504 154.071846 -70.005128
130.562176 160.897814 -73.928422
123.590341 152.852924 -71.009938
125.891312 156.265908 -73.387929
120.633681 150.293186 -71.342298
118.915909 148.708586 -71.338682
123.514672 155.046985 -75.156892
116.462401 146.758309 -71.872239
121.789674 154.071846 -76.220639
114.590338 145.539387 -72.720983
117.859062 150.293186 -75.838314
115.381056 147.733448 -75.273105
111.872009 143.832895 -73.990065
115.370170 148.952371 -77.350024
108.301095 140.419911 -73.601096
112.516915 146.514525 -77.504078
107.181268 140.176126 -74.826069
107.636913 141.395049 -76.154532
110.574215 145.905063 -79.279918
104.832291 138.957203 -76.164864
106.914690 142.370187 -78.708894
101.498028 135.788004 -75.709177
107.186744 144.076679 -81.005632
102.524152 138.469634 -78.498852
102.028909 138.469634 -79.141477
103.495880 141.151264 -81.326031
98.447340 134.934758 -78.364421
104.943345 144.564248 -84.617867
97.014661 134.325297 -79.235818
101.944953 141.882618 -84.335931
95.401448 133.472051 -79.937635
96.717253 136.031789 -82.079994
93.872213 132.740697 -80.685594
98.250190 139.688557 -85.527815
92.083540 131.643666 -81.182306
96.150224 138.225850 -85.847242
93.079599 134.569081 -84.162645
89.866377 130.668528 -82.289416
92.848124 135.788004 -86.098519
87.499479 128.718251 -82.167225
90.770449 134.325297 -86.318507
85.477553 127.255544 -82.314121
88.376552 132.375020 -86.182592
87.348043 131.643666 -86.256968
84.875368 128.718251 -84.875106
86.097502 131.399882 -87.186022
81.103948 124.573914 -83.168108
85.152811 131.643666 -88.424793
81.619034 127.011760 -85.828068
79.366330 124.330129 -84.516298
80.534071 127.011760 -86.846920
78.758605 125.061483 -86.009928
81.113550 129.693390 -89.706900
77.671582 125.061483 -86.992821
79.378532 128.718251 -90.036995
75.900607 123.964452 -87.190380
78.833590 129.693390 -91.716961
74.357684 123.233099 -87.617283
77.236830 128.962036 -92.177599
73.033449 122.867422 -88.282003
76.144326 129.083928 -93.228918
72.061022 123.111206 -89.369743
75.603907 130.180959 -94.978772
70.370468 122.136068 -89.553213
73.429091 128.474467 -94.663920
68.824974 121.404714 -89.888921
72.782006 129.449605 -96.304617
67.418145 120.917145 -90.382237
70.555271 127.621221 -95.838550
66.009828 120.429576 -90.854449
68.086972 125.305268 -94.962441
64.009476 118.844977 -90.470484
67.018427 125.549052 -95.996929
62.480689 118.113623 -90.706040
65.040152 124.086345 -95.703372
63.171587 121.648499 -94.221925
63.205367 122.867422 -95.565047
60.616252 118.966869 -92.913931
62.614576 124.086345 -97.307614
62.123754 124.330129 -97.891052
58.612995 118.479300 -93.654537
60.530577 123.598776 -98.083597
58.495046 120.673361 -96.131522
58.240731 121.404714 -97.081989
56.761686 119.576330 -95.978447
56.100273 119.454438 -96.234995
55.636075 119.759169 -96.831974
54.606517 118.844977 -96.437803
53.168745 117.016592 -95.290092
55.033145 122.501745 -100.104573
52.075393 117.260377 -96.150587
54.252411 123.598776 -101.690799
50.968793 117.504161 -96.998618
53.074755 123.842560 -102.566410
50.984366 120.429576 -100.062094
50.660453 121.160930 -100.990059
50.628840 122.623637 -102.529387
48.194955 118.235515 -99.165117
49.213848 122.318907 -102.901140
46.896640 118.113623 -99.660059
48.227276 123.111206 -104.181917
47.948540 124.086345 -105.310467
44.731172 117.382269 -99.903829
45.613882 121.404714 -103.615969
43.517387 117.504161 -100.562353
44.664128 122.379853 -105.017769
42.250280 117.504161 -101.101254
43.254607 122.136068 -105.360428
41.061515 117.747946 -101.835029
41.676167 121.404714 -105.261543
40.149218 118.844977 -103.296476
39.864009 119.942007 -104.502516
38.967552 119.210653 -104.112199
38.626027 120.185792 -105.208602
38.272250 121.160930 -106.304790
36.014683 116.041454 -102.041338
36.338896 119.210653 -105.058578
34.875506 116.529023 -102.916456
35.159070 119.698222 -105.938440
32.525749 112.872255 -100.103484
33.273946 117.747946 -104.638739
30.860111 111.409547 -99.201869
30.666257 112.994147 -100.807507
30.518223 114.822531 -102.632473
29.809342 114.578747 -102.603891
30.156898 118.479300 -106.288368
27.971580 112.384685 -100.998602
28.759594 118.235515 -106.439466
26.526465 111.653332 -100.682627
28.324371 122.136068 -110.315506
25.259188 111.653332 -101.008010
25.726209 116.650915 -105.692838
24.302175 113.116039 -102.644745
24.574482 117.504161 -106.783166
22.762461 111.897116 -101.832734
23.182504 117.260377 -106.861374
22.147923 115.371046 -105.280832
20.975231 112.628470 -102.911940
21.472218 118.966869 -108.840583
19.744276 112.994147 -103.502349
20.082230 118.844977 -108.990025
18.899673 115.797669 -106.316257
18.730262 118.966869 -109.345809
17.303395 114.091177 -104.975215
17.532554 120.185792 -110.695210
16.187815 115.553885 -106.532879
16.058322 119.576330 -110.344377
14.847840 115.553885 -106.727885
14.894781 121.404714 -112.227629
13.590998 116.285239 -107.582657
13.483347 121.404714 -112.405937
12.276521 116.650915 -108.083768
12.118258 121.892284 -113.018568
10.997222 117.504161 -109.021149
10.825470 123.354991 -114.519867
9.676319 118.113623 -109.716867
9.385554 123.354991 -114.646858
8.296848 118.113623 -109.829798
8.006955 124.330129 -115.662905
6.894655 117.747946 -109.585058
6.591444 125.061483 -116.435297
5.534193 118.113623 -110.003613
5.027836 122.623637 -114.237803
4.190005 119.210653 -111.086741
3.631197 123.964452 -115.541676
2.845172 121.404714 -113.175971
2.191864 124.695806 -116.260060
1.451343 123.842560 -115.475936
0.711475 121.404714 -113.209492
0.000154 125.549052 -117.076385
-0.719745 122.867422 -114.573464
-1.467462 125.244321 -116.783000
-2.253684 128.230682 -119.555806
-2.879149 122.867422 -114.539544
-3.823683 130.546636 -121.676643
-4.361070 124.086345 -115.630177
-5.427338 132.375020 -123.322334
-5.825161 124.330129 -115.793292
-6.995856 132.740697 -123.584851
-7.308313 124.817698 -116.164719
-8.618923 133.837727 -124.507738
-8.818839 125.549052 -116.743771
-9.978785 131.156097 -121.897278
-10.365034 126.524190 -117.529551
-11.381402 129.693390 -120.404317
-11.909543 127.255544 -118.068579
-12.966217 130.424743 -120.929902
-13.315290 126.524190 -117.231959
-14.863845 133.837727 -123.917427
-15.015318 128.474467 -118.859705
-16.539458 134.812866 -124.622291
-16.539052 128.718251 -118.886801
-18.136899 135.056650 -124.629579
-18.134136 129.449605 -119.343843
-20.110535 137.860173 -126.973970
-19.632384 129.449605 -119.106546
-21.455031 136.275573 -125.254784
-21.366261 130.912313 -120.193383
-22.821325 135.056650 -123.857443
-23.939870 137.006927 -125.498057
-23.715923 131.399882 -120.215378
-25.673895 137.860173 -125.966955
-25.365080 132.131235 -120.575262
-26.700522 135.056650 -123.079491
-26.704663 131.277989 -119.470500
-27.990117 133.837727 -121.626544
-28.360950 132.009343 -119.789147
-30.053908 136.275573 -123.474054
-29.946712 132.375020 -119.754117
-31.885791 137.494496 -124.187600
-31.622936 133.106374 -120.027843
-33.443820 137.494496 -123.777116
-33.310740 133.837727 -120.278250
-35.741176 140.419911 -125.971493
-35.517191 136.519358 -122.251538
-38.001654 142.979649 -127.800408
-36.918281 136.031789 -121.360591
-39.604599 142.979649 -127.312787
-38.578168 136.519358 -121.320379
-40.955417 142.126403 -126.048340
-40.171245 136.763142 -121.041786
-43.119798 144.076679 -127.246193
-42.580835 139.688557 -123.105562
-43.656127 140.663695 -123.693082
-45.433525 143.832895 -126.196953
-44.423529 138.225850 -121.000680
-47.254797 144.564248 -126.254796
-45.940521 138.225850 -120.432898
-48.919946 144.808033 -125.862912
-47.952378 139.688557 -121.114312
-51.517837 147.733448 -127.768309
-50.420216 142.370187 -122.815483
-52.724861 146.636417 -126.166953
-51.959539 142.370187 -122.172203
-54.260976 146.514525 -125.390131
-53.307471 141.882618 -121.093502
-56.482643 148.221017 -126.150779
-55.295933 143.101541 -121.448562
-58.827391 150.171293 -127.081464
-56.914488 143.345326 -120.949819
-60.615826 150.658863 -126.742372
-59.125448 145.051817 -121.656330
-62.807609 152.121570 -127.193680
-61.312077 146.636417 -122.224549
-65.639452 155.046985 -128.825055
-64.358036 150.171293 -124.372037
-66.407139 153.096708 -126.380118
-67.948937 154.803200 -127.364395
-67.232144 151.390216 -124.136382
-70.310665 156.509692 -127.894983
-68.897506 151.634001 -123.480260
-70.736113 153.949954 -124.924233
-70.840112 152.487247 -123.294639
-74.876353 159.435107 -128.444457
-72.904592 153.584277 -123.275262
-77.537018 161.629168 -129.247912
-75.393288 155.534554 -123.903050
-78.916252 161.141599 -127.876456
-77.788523 157.241046 -124.294807
-81.125977 162.360522 -127.834412
-80.820448 160.166461 -125.601593
-84.961780 166.748644 -130.232045
-83.897266 163.091875 -126.851445
-84.186252 162.116737 -125.566515
-87.529138 166.992429 -128.795535
-83.823100 158.459969 -121.690471
-88.229751 165.285937 -126.380656
-84.820446 157.484830 -119.885214
-90.738141 166.992429 -126.555244
-86.587477 157.972400 -119.177724
-92.051724 166.504859 -125.038886
-92.869525 166.565806 -124.503599
-91.491186 162.726199 -121.061130
-95.255924 168.028513 -124.409768
-92.796221 162.360522 -119.632447
-96.074329 166.748644 -122.264521
-94.716940 163.091875 -118.990510
-100.314322 171.380551 -124.410026
-95.988996 162.726199 -117.526793
-101.145208 170.161628 -122.263834
-98.115286 163.823229 -117.095432
-104.438757 173.087043 -123.063126
-100.319880 165.042152 -116.715270
-104.633558 170.892982 -120.197831
-106.138401 172.111904 -120.390655
-103.561803 166.748644 -115.990701
-106.804278 170.771089 -118.119987
-104.550595 166.017290 -114.177197
-109.323530 172.416635 -117.893732
-109.478542 171.502443 -116.583065
-110.130560 171.380551 -115.810525
-115.429049 178.450303 -119.865024
-111.100998 170.649197 -113.929208
-114.689872 175.037319 -116.140495
-110.916381 168.211351 -110.916625
-119.504806 182.070482 -112.222728
-113.992747 172.657314 -105.706590
-123.619773 186.157779 -113.197540
-115.477500 172.905029 -104.415399
-120.457085 179.345618 -107.550071
-116.696818 172.781172 -102.882308
-122.892553 180.955765 -106.979818
-118.065001 172.905029 -101.480462
-124.482249 181.327337 -105.643581
-119.672809 173.400459 -100.275340
-127.604450 183.928344 -105.563812
-121.268920 173.895889 -99.045791
-126.576878 180.584193 -102.061958
-123.289241 175.010606 -98.139191
-130.830798 184.795347 -102.806096
-129.799892 182.442055 -100.683338
-131.758145 184.299917 -100.882763
-127.318037 177.240041 -96.220244
-132.300303 183.309057 -98.685683
-129.055948 177.983186 -95.009462
-138.853099 190.616648 -100.882905
-130.330285 178.107043 -93.445220
-137.105530 186.529351 -97.004509
-134.054619 181.575052 -93.587591
-133.537897 180.088763 -91.984304
-140.569831 188.758786 -95.531374
-133.756937 178.850188 -89.677959
-141.201077 188.015641 -93.388301
-134.873274 178.850188 -87.990083
-139.831293 184.671489 -89.977222
-138.981460 182.813627 -88.200519
-138.398480 181.327337 -86.615573
-144.634227 188.758786 -89.258396
-140.619213 182.813627 -85.565266
-145.170635 188.015641 -87.089641
-142.259276 183.556772 -84.132099
-144.133929 185.290776 -84.022913
-153.748549 196.933379 -88.338147
-144.596118 184.547632 -81.875386
-155.430797 197.676524 -86.725195
-146.395368 185.538491 -80.481729
-151.409048 191.235935 -82.003424
-152.511667 191.979080 -81.365444
-150.749270 189.130358 -79.212469
-150.649719 188.387213 -77.956207
-155.608051 193.960799 -79.286460
-155.704417 193.465370 -78.107169
-155.192153 192.226795 -76.633541
-159.682717 197.181094 -77.606854
-154.935589 190.740505 -74.099937
-161.452584 198.171953 -75.974017
-159.902668 195.694804 -74.021111
-161.684053 197.304951 -73.615714
-163.873743 199.410528 -73.373124
-164.127384 199.162813 -72.252167
-167.648602 202.878537 -72.548226
-166.048608 200.401388 -70.620498
-170.604971 205.355687 -71.295841
-165.581757 198.791241 -67.977750
-170.453104 204.117112 -68.729335
-168.807771 201.639963 -66.835917
-171.926979 204.860257 -66.824398
-169.113316 201.020675 -64.510655
-174.006471 206.346547 -65.127787
-175.459135 207.585121 -64.417547
-172.502700 203.621682 -62.104984
-175.728936 206.965834 -62.022050
-173.901864 204.364827 -60.151135
-185.049818 216.998289 -62.708112
-175.279065 205.107972 -58.171895
-182.641296 213.282565 -59.343950
-181.097555 211.053130 -57.586904
-181.242831 210.805415 -56.381652
-185.861275 215.759714 -56.540043
-180.868055 209.566841 -53.781835
-185.486149 214.521140 -53.888901
-183.138905 211.424703 -51.961396
-193.027147 222.448018 -53.458810
-188.837463 217.246004 -51.023173
-195.409139 224.429737 -51.483603
-192.272182 220.466298 -49.367300
-189.765624 217.246004 -47.454817
-192.768995 220.342441 -46.920927
-190.781046 217.741434 -45.169241
-194.756237 221.952588 -44.820024
-189.048027 215.140427 -42.257427
-196.829884 223.686592 -42.700179
-190.982839 216.750574 -40.176963
-193.854110 219.723153 -39.510727
-195.302078 221.085586 -38.529370
-192.582556 217.741434 -36.737273
-199.390112 225.172882 -36.739033
-195.005398 219.970868 -34.665714
-196.978092 221.952588 -33.741041
-194.765391 219.227724 -32.103704
-200.690993 225.668312 -31.786521
-196.807272 221.085586 -29.905042
-201.295296 225.916027 -29.294240
-195.842025 219.599296 -27.245191
-201.205306 225.420597 -26.703752
-195.836999 219.227724 -24.740148
-200.306972 224.058165 -24.027187
-194.802711 217.741434 -22.126266
-198.486246 221.704873 -21.282322
-195.287287 217.989149 -19.699005
-195.407204 217.989149 -18.471598
-196.297041 218.856151 -17.312043
-193.623192 215.759714 -15.850858
-197.499930 219.970868 -14.919605
-190.691933 212.291705 -13.200879
-196.558800 218.732294 -12.366609
-191.956194 213.530280 -10.866625
-190.795492 212.167848 -9.598684
-195.420006 217.246004 -8.600742
-191.402536 212.725206 -7.219297
-193.617719 215.140427 -6.084854
-192.202804 213.530280 -4.831771
-187.769291 208.575981 -3.539953
-190.018086 211.053130 -2.388131
-183.338166 203.621682 -1.152124
-189.587005 210.557701 -0.000167
-182.669051 202.878537 1.147598
-186.672701 207.337406 2.345758
-187.992301 208.823696 3.543827
-180.831185 200.896818 4.545583
-183.920124 204.364827 5.779762
-188.226437 209.195268 7.099169
-181.381867 201.639963 7.982582
-186.006129 206.841976 9.357409
-180.153801 200.401388 10.198174
-185.428651 206.346547 11.666021
-182.904070 203.621682 12.661431
-177.927889 198.171953 13.440773
-183.842024 204.860257 15.049802
-176.856218 197.181094 15.597183
-181.362342 202.321179 17.143633
-179.753103 200.649103 18.131723
-176.641704 197.304951 18.939767
-180.619160 201.887678 20.514935
-179.600872 200.896818 21.543132
-176.585266 197.676524 22.307755
-183.516970 205.603402 24.355847
-173.640011 194.703944 24.156176
-175.471274 196.933379 25.535789
-173.322753 194.703944 26.336236
-175.577130 197.428809 27.808535
-171.987793 193.589227 28.348901
-174.774141 196.933379 29.937335
-170.849378 192.722225 30.371237
-174.384148 196.933379 32.131191
-170.016056 192.226795 32.432152
-174.623095 197.676524 34.449482
-174.840297 198.171953 35.635072
-169.374558 192.226795 35.630928
-173.070861 196.685664 37.545589
-167.498577 190.616648 37.440224
-169.542329 193.217655 39.017133
-166.363746 189.873503 39.387902
-170.338949 194.703944 41.461025
-166.829373 190.988220 41.718821
-166.239900 190.616648 42.683008
-169.203687 194.332372 44.579047
-165.367435 190.245075 44.681348
-170.887145 196.933379 47.326819
-164.363762 189.749645 46.634074
-169.422193 195.942519 49.221550
-163.764779 189.749645 48.695794
-168.150130 195.199374 51.151890
-163.246423 189.873503 50.782951
-168.131745 195.942519 53.463602
-167.580379 195.694804 54.450019
-162.789468 190.492790 54.026510
-167.094171 195.942519 56.623127
-160.832974 189.006501 55.630403
-165.317809 194.703944 58.347203
-161.800080 190.988220 58.251470
-160.802748 190.245075 59.036323
-162.726446 192.969940 60.905532
-157.860040 187.644068 60.217617
-158.725923 189.130358 61.693104
-156.468737 186.900924 61.950215
-159.075886 190.492790 64.141539
-155.677914 186.900924 63.911517
-161.550061 194.456229 67.511459
-158.249162 190.988220 67.303064
-154.547975 187.024781 66.878740
-158.309558 192.102937 69.690711
-153.593586 186.900924 68.769943
-157.928806 192.722225 71.905592
-154.235357 188.758786 71.397306
-154.086437 189.130358 72.507431
-150.911415 185.786206 72.174997
-152.461016 188.263356 74.096728
-148.792605 184.299917 73.473133
-150.321682 186.777066 75.406657
-150.838591 188.015641 76.855959
-147.183225 184.052202 76.162084
-149.860906 188.015641 78.745335
-145.230601 182.813627 77.480644
-150.232437 189.749645 81.365828
-148.740965 188.511071 81.770895
-145.302617 184.795347 81.073674
-149.351441 190.616648 84.567670
-142.725212 182.813627 82.004217
-146.639080 188.511071 85.482946
-141.107525 182.070482 83.450619
-145.744586 188.758786 87.433612
-144.049104 187.272496 87.651970
-143.305722 187.024781 88.438185
-145.488726 190.616648 91.052591
-141.241479 185.786206 89.634425
-141.519558 186.900924 91.063217
-138.142521 183.185199 90.122564
-142.317456 189.501930 94.126298
-140.611683 188.015641 94.273397
-136.511548 183.309057 92.773010
-136.660682 184.299917 94.135003
-136.432290 184.795347 95.247158
-136.741542 186.033921 96.746620
-137.399834 187.767926 98.513634
-132.357216 181.698910 96.163004
-133.636395 184.299917 98.381170
-130.333848 180.584193 97.218504
-133.635183 186.033921 100.994039
-129.101905 180.584193 98.848609
-133.412970 187.520211 103.485559
-131.883239 186.281636 103.632722
-129.484423 183.804487 103.070231
-131.612359 187.767926 106.121805
-127.142526 182.318197 103.842657
-129.666933 186.900924 107.269666
-126.169519 182.813627 105.718637
-128.393769 187.024781 108.962758
-126.522571 185.290776 108.749613
-123.818012 182.318197 107.785061
-126.651796 187.520211 111.658426
-121.455539 180.831908 108.441156
-127.306702 190.616648 115.111021
-119.918775 180.584193 109.808181
-123.969359 187.767926 114.957595
-119.505004 182.070482 112.222518
-122.434194 187.644068 116.429471
-117.764054 181.575052 113.405933
-121.520367 188.511071 118.503816
-116.488396 181.822767 115.033528
-117.971344 185.290776 117.971188
-118.011393 186.529351 119.503607
-114.766663 182.565912 117.687773
-114.991917 184.114131 119.410672
-113.586137 183.061342 119.443902
-112.680727 182.813627 119.992631
-111.317935 181.822767 120.044061
-109.356453 179.841048 119.425138
-112.418530 186.157779 124.328619
-107.847118 179.841048 120.789887
-113.059857 189.873503 128.241069
-106.174304 179.593333 121.967331
-108.895168 185.538491 126.691575
-104.777596 179.841048 123.461949
-106.900619 184.857275 127.579810
-105.777016 184.299917 127.862283
-103.137371 181.079622 126.278650
-103.881936 183.804487 128.834125
-99.736589 177.859328 125.296116
-101.806918 182.999413 129.559364
-98.290943 178.107043 126.715756
-98.441994 179.841048 128.570492
-98.708061 181.822767 130.610022
-94.951574 176.373039 127.294387
-97.323482 182.318197 132.199316
-92.557879 174.886749 127.394827
-96.694299 184.299917 134.861978
-91.207370 175.382179 128.912013
-93.587532 181.575052 134.054661
-91.857719 179.841048 133.354254
-89.137484 176.125324 131.161653
-91.292600 182.070482 136.165343
-87.482263 176.125324 132.271403
-88.843113 180.584193 136.180948
-85.451146 175.382179 132.797564
-87.483381 181.327337 137.851568
-84.722277 177.363898 135.373413
-84.338582 178.354758 136.662299
-84.347813 180.212620 138.618570
-81.352451 175.629894 135.607388
-82.315420 179.593333 139.187586
-78.518679 173.152744 134.692035
-80.559883 179.593333 140.210976
-77.259532 174.143604 136.444424
-79.117660 180.336478 141.796551
-76.828292 177.116183 139.749952
-75.098930 175.134464 138.660910
-77.165873 182.070482 144.640131
-72.676213 173.524317 138.310266
-74.214656 179.345618 143.419357
-71.590650 175.134464 140.504363
-75.306846 186.529351 150.122217
-69.819414 175.134464 141.392881
-71.074555 180.584193 146.242118
-69.480656 178.850188 145.277297
-67.521844 176.125324 143.491013
-68.492887 181.079622 147.960600
-65.990670 176.868468 144.937146
-68.268839 185.538491 152.473861
-64.433771 177.611613 146.367360
-65.815968 184.052202 152.091496
-62.938599 178.602473 147.986488
-61.792531 177.983186 147.864528
-62.429343 182.565912 152.067011
-60.304921 179.097903 149.560214
-61.498828 185.538491 155.328062
-58.097567 178.107043 149.474630
-59.303627 184.795347 155.463407
-57.856550 183.309057 154.579603
-54.885529 176.868468 149.496233
-55.248435 181.141551 153.458174
-52.705686 175.877609 149.332811
-51.183083 173.895889 147.974700
-52.507238 181.698910 154.947559
-49.038562 172.905029 147.759426
-49.832309 179.097903 153.367800
-46.704807 171.171025 146.876090
-47.304868 176.868468 152.065099
-45.374779 173.152744 149.158495
-44.690986 174.143604 150.295815
-44.119137 175.629894 151.858772
-41.824749 170.180165 147.412353
-41.731143 173.648174 150.681566
-39.969057 170.180165 147.926285
-40.061677 174.639034 152.056798
-38.023850 169.808593 148.092804
-38.905306 178.107043 155.577535
-36.239032 170.180165 148.883995
-36.176435 174.391319 152.798488
-34.065154 168.693875 148.023450
-35.031995 178.354758 156.723768
-32.249682 168.941590 148.657800
-32.371085 174.639034 153.877616
-30.423640 169.189305 149.269864
-30.888182 177.240041 156.569914
-28.503712 168.941590 149.421290
-28.493902 174.639034 154.642508
-26.897092 170.675595 151.304876
-26.491921 174.267462 154.658592
-24.884839 169.932450 150.970698
-24.127682 171.294882 152.335709
-23.019277 170.180165 151.491994
-21.970614 169.437020 150.971482
-21.113804 170.180165 151.769294
-19.895697 167.950731 149.909017
-19.540456 173.152744 154.678045
-18.382258 171.418740 153.247575
-17.746254 174.639034 156.241090
-16.241079 169.189305 151.470517
-15.781521 174.639034 156.451754
-14.262946 168.322303 150.885456
-13.775105 174.143604 156.193350
-12.365787 168.322303 151.052771
-11.731479 172.966958 155.297670
-10.466674 168.322303 151.196234
-9.842099 174.081675 156.434542
-8.685669 170.675595 153.431347
-7.822326 172.905029 155.487748
-6.943289 175.382179 157.762106
-5.787980 170.551737 153.456359
-5.009338 177.116183 159.397434
-3.884407 171.666455 154.520354
-3.026968 178.354758 160.562816
-1.959208 173.152744 155.895121
-1.021703 180.584193 162.595527
-0.000069 175.134464 157.691780
1.038376 183.556772 165.271998
1.996907 176.496896 158.905972
3.110905 183.309057 165.022896
4.147707 183.309057 165.000093
5.121291 181.079622 162.964374
6.254403 184.299917 165.826485
7.296192 184.299917 165.783914
8.203213 181.327337 163.061657
9.530135 187.272496 168.351385
10.398657 183.928344 165.283036
11.860540 190.740505 171.333491
12.516793 184.547632 165.695341
13.812408 188.015641 168.725624
14.774290 186.777066 167.524602
15.742619 185.786206 166.540252
17.303559 191.483650 171.542151
17.869797 186.157779 166.661939
19.659173 193.465370 173.084119
20.082204 187.272496 167.420779
21.748739 192.722225 172.159560
22.243124 187.767926 167.597416
24.064053 193.960799 172.977252
24.251042 187.024781 166.642520
25.967738 191.979080 170.897105
26.273382 186.529351 165.884027
28.729865 196.190234 174.298557
28.657070 188.511071 167.299511
30.722651 194.951659 172.825771
30.878350 189.254216 167.584249
33.289005 197.304951 174.507445
33.154463 190.245075 168.058302
34.944718 194.332372 171.452751
35.057050 189.130358 166.646215
37.025512 193.960799 170.673137
37.172693 189.254216 166.301365
39.167274 193.960799 170.194397
39.002574 188.015641 164.735904
41.461100 194.703944 170.338930
41.394234 189.501930 165.531072
43.515110 194.332372 169.480425
43.925635 191.483650 166.723308
45.292299 192.846082 167.628298
46.299990 192.660296 167.179197
47.212507 192.102937 166.402195
49.003830 195.075517 168.672515
49.681227 193.589227 167.078535
51.606359 196.933379 169.643827
52.406225 195.942519 168.464322
53.429881 195.818662 168.025443
55.208259 198.419668 169.913753
55.642461 196.190234 167.658309
57.052706 197.428809 168.361611
58.255241 197.924239 168.421398
58.569975 195.447089 165.948767
61.349224 201.144533 170.404208
60.535365 195.075517 164.885604
63.446594 201.020675 169.515391
63.755227 198.667383 167.133638
64.844495 198.791241 166.833702
66.178832 199.658243 167.148814
67.060928 199.162813 166.315982
67.723410 198.048096 164.962849
68.629555 197.676524 164.225382
69.834639 198.171953 164.201435
70.599219 197.428809 163.145314
71.038765 195.818662 161.371608
74.466665 202.383107 166.316680
73.476865 196.933379 161.379660
76.738123 202.878537 165.772614
75.926320 198.048096 161.351776
79.681270 205.107972 166.606167
78.386610 199.162813 161.287672
82.064822 205.851117 166.191705
81.007222 200.649103 161.486122
82.931600 202.878537 162.762553
83.030068 200.649103 160.455431
85.489078 204.117112 162.694806
84.409877 199.162813 158.218667
87.208093 203.373967 161.019323
86.176491 198.667383 156.754567
90.311362 205.851117 161.858505
88.688970 199.905958 156.629737
92.171477 205.479544 160.420777
90.088534 198.667383 154.539438
94.861284 206.965834 160.401778
92.424969 199.534386 154.064610
94.840428 202.630822 155.862613
93.592265 197.924239 151.657272
97.619805 204.364827 155.982022
94.833288 196.561806 149.433443
98.968707 203.126252 153.805175
96.398913 195.942519 147.762952
100.647533 202.630822 152.177314
99.117549 197.676524 147.836746
102.426484 202.383107 150.716083
100.777658 197.304951 146.304032
104.567656 202.878537 149.782857
102.994635 198.048096 145.572342
106.701508 203.373967 148.819562
104.619119 197.676524 143.995944
109.092088 204.364827 148.185471
106.553677 197.924239 142.848711
111.080059 204.612542 146.980858
111.594584 203.869397 145.748741
111.551208 202.135393 143.811026
114.657544 206.098832 145.913320
112.932809 201.392248 141.874392
116.622047 206.346547 144.634639
114.071784 200.277530 139.666706
118.856844 207.089691 143.673315
116.462462 201.392248 138.991574
120.941508 207.585121 142.508527
117.909066 200.896818 137.178832
122.869174 207.832836 141.145750
120.361058 202.135393 136.522887
125.227315 208.823696 140.256136
122.366292 202.630822 135.330527
124.871092 205.355687 136.368484
125.118813 204.364827 134.927017
124.742640 202.383107 132.837480
126.573880 203.993255 133.101672
126.711462 202.878537 131.580791
133.842412 212.910992 137.249291
129.060154 203.993255 130.692306
134.373659 211.053130 134.373718
131.406414 205.107972 129.765458
135.891910 210.805415 132.518842
132.705357 204.612542 127.794524
137.384789 210.557701 130.647052
136.739626 208.328266 128.407110
137.625502 208.452124 127.621250
138.835892 209.071411 127.130582
139.631931 209.071411 126.255746
142.252609 211.796275 127.009973
143.884360 213.034850 126.851178
143.669159 211.548560 125.065945
142.591506 208.823696 122.561521
145.399457 211.796275 123.395039
144.633245 209.566841 121.189784
148.829002 214.521140 123.122107
147.526684 211.548560 120.491474
150.538040 214.768855 121.382196
148.680123 211.053130 118.350316
148.894671 210.309986 117.000372
149.891220 210.681558 116.267593
154.869054 216.626717 118.577788
151.963209 211.548560 114.845552
156.615056 216.998289 116.822373
153.035128 211.053130 112.662442
159.514253 218.980009 115.893932
159.876751 218.484579 114.629462
157.589522 214.397282 111.497076
160.938796 217.989149 112.356038
159.253682 214.768855 109.697784
163.260335 219.227724 110.951649
161.453241 215.883572 108.246868
166.502025 221.704873 110.121763
163.641351 216.998289 106.757907
170.123481 224.677452 109.469120
167.606461 220.466298 106.366332
171.296573 224.429737 107.204370
171.397346 223.686592 105.774563
174.345052 226.659172 106.086863
173.669310 224.925167 104.186137
176.048345 227.154602 104.114736
178.818656 229.879466 104.242173
174.248443 223.191163 100.116413
178.755827 228.145461 101.217602
174.713650 222.200303 97.484183
181.381799 229.879466 99.715521
177.395790 224.058165 96.077690
175.142513 220.466298 93.438872
180.662273 226.659172 94.930305
176.302841 220.466298 91.230646
183.629506 228.888606 93.563937
175.641039 218.236864 88.107932
180.290962 223.315020 89.027080
175.330094 216.502859 85.211392
176.868104 217.741434 84.589253
176.185205 216.255144 82.906491
174.880964 214.025710 80.954580
178.431060 217.741434 81.240537
173.441595 211.053130 77.656868
177.192319 215.016570 78.003427
172.868497 209.195268 74.806902
177.542768 214.273425 75.508782
173.897772 209.319126 72.671724
178.890261 214.768855 73.441224
174.073226 208.452124 70.188846
180.421145 215.511999 71.433807
174.837532 208.328266 67.955491
179.220579 213.034850 68.366033
179.646595 213.034850 67.238614
177.448288 209.938413 65.147661
178.798476 211.053130 64.371432
176.254810 207.585121 62.207478
180.857994 212.539420 62.557022
176.494486 206.965834 59.808780
181.418119 212.291705 60.209157
175.853284 205.355687 57.138213
177.749851 207.151620 56.522201
180.177999 209.566841 56.050226
174.445044 202.506965 53.066993
175.309508 203.126252 52.128811
172.849146 199.905958 50.217334
175.414285 202.506965 49.769548
172.499246 198.791241 47.773451
175.056891 201.392248 47.299549
178.585877 205.107972 47.051083
175.313383 201.020675 45.012839
175.700935 201.144533 43.937486
173.589655 198.419668 42.252419
176.239183 201.144533 41.726152
174.324257 198.667383 40.117770
176.967273 201.392248 39.556883
171.109068 194.456229 37.120160
168.937994 191.731365 35.539245
164.568400 186.529351 33.541656
163.791183 185.414634 32.312722
163.005057 184.299917 31.094887
158.590841 179.097903 29.221336
164.371130 185.414634 29.219773
157.626465 177.611613 27.000226
160.874035 181.079622 26.517155
156.961967 176.496896 24.860340
162.738136 182.813627 24.728060
156.268737 175.382179 22.741444
162.152356 181.822767 22.558200
157.702968 176.682682 20.930027
156.005763 174.639034 19.708117
162.770193 182.070482 19.524436
156.462717 174.886749 17.771357
158.012809 176.496896 16.942491
160.446274 179.097903 16.184382
157.213991 175.382179 14.861102
162.969882 181.698910 14.372674
157.054874 175.010606 12.857073
160.357499 178.602473 12.113638
157.315291 175.134464 10.890201
162.723093 181.079622 10.237672
156.326282 173.895889 8.849480
160.722654 178.726331 8.085615
154.865347 172.161885 6.815731
160.700126 178.602473 6.061125
157.502501 175.010606 4.949717
154.743329 171.914170 3.889944
161.900840 179.841048 3.052121
156.341173 173.648174 1.964745
159.472980 177.116183 1.002012
154.234605 171.294882 0.000271
162.372490 180.336478 -1.019944
155.672099 172.905029 -1.956063
156.994759 174.391319 -2.959357
159.871717 177.611613 -4.018580
154.047041 171.171025 -4.840853
159.139941 176.868468 -6.002000
155.311015 172.657314 -6.835071
155.710527 173.152744 -7.833191
162.004817 180.212620 -9.170651
156.267611 173.895889 -9.831251
155.980244 173.648174 -10.797507
155.798118 173.524317 -11.768940
164.057344 182.813627 -13.430030
156.193381 174.143604 -13.774762
161.210984 179.841048 -15.238643
159.281236 177.797399 -16.066581
155.018911 173.152744 -16.621203
156.241129 174.639034 -17.745910
154.797808 173.152744 -18.567865
164.193336 183.804487 -20.742154
155.215576 173.895889 -20.599628
157.292243 176.373039 -21.881792
155.606621 174.639034 -22.644808
155.902294 175.134464 -23.689073
157.512755 177.116183 -24.947293
153.391567 172.657314 -25.283529
157.626513 177.611613 -26.999949
151.744137 171.171025 -26.974834
158.590892 179.097903 -29.221057
151.174096 170.923310 -28.837734
156.022917 176.620754 -30.779914
150.144132 170.180165 -30.601486
156.496882 177.611613 -32.921738
153.017339 173.895889 -33.195084
154.438289 175.753751 -34.520772
152.153403 173.400459 -35.015242
154.643436 176.496896 -36.612884
151.484670 173.152744 -36.871695
151.033629 172.905029 -37.768657
151.333433 173.524317 -38.855549
149.900051 172.161885 -39.493097
146.203795 168.198445 -39.503303
144.448037 166.464441 -40.004430
148.378029 171.294882 -42.098384
143.933935 166.464441 -41.816411
149.226952 172.905029 -44.372799
143.397104 166.464441 -43.621790
151.745738 176.496896 -47.205154
143.050184 166.712156 -45.487870
147.852605 172.657314 -48.039950
141.938063 166.092868 -47.106215
146.603526 171.914170 -49.679327
141.018731 165.721296 -48.776730
144.495382 170.180165 -50.998001
140.814382 166.216726 -50.696032
141.121207 166.959871 -51.810399
144.135154 170.923310 -53.947007
136.707882 162.501002 -52.148733
141.990625 169.189305 -55.188336
135.004882 161.262427 -53.451956
140.665333 168.446160 -56.718012
134.013044 160.890855 -55.017152
138.912524 167.207586 -58.051132
136.543832 164.792365 -58.071687
132.645200 160.519282 -57.400445
139.324714 169.065448 -61.333095
132.320570 161.014712 -59.245030
136.005581 165.969011 -61.923719
132.678895 162.377144 -61.418432
132.593099 162.748717 -62.393311
135.015470 166.216726 -64.572446
129.993133 160.519282 -63.177096
134.593370 166.712156 -66.461466
128.391520 159.528423 -64.405573
132.753918 165.473581 -67.641228
126.977780 158.785278 -65.706343
132.683235 166.464441 -69.719073
125.748506 158.289848 -67.086789
129.247028 163.244147 -69.999991
125.677381 159.280708 -69.091460
125.046013 159.032993 -69.771068
136.832772 174.639034 -77.479031
123.772604 158.537563 -71.114659
126.791806 162.996432 -73.912869
120.661396 155.688841 -71.358688
123.940343 160.519282 -74.352884
117.468677 152.716262 -71.477991
120.718528 157.546703 -74.498815
115.521326 151.353829 -72.297667
119.019553 156.555843 -75.531838
114.791277 151.601544 -73.864298
117.126992 155.317269 -76.412132
116.225990 154.759910 -76.869708
110.599769 147.885820 -74.151705
115.942647 155.688841 -78.794272
108.924507 146.894961 -75.029550
112.474410 152.344689 -78.521352
109.611797 149.124395 -77.551788
107.309700 146.647246 -76.939314
109.891747 150.858400 -79.840762
102.562407 141.445232 -75.504813
106.555589 147.638105 -79.481701
100.715797 140.206657 -76.115259
107.319351 150.115255 -82.170354
101.690008 142.931521 -78.878600
102.069279 144.170096 -80.205022
103.831921 147.390390 -82.650566
99.317048 141.692947 -80.081274
101.057651 144.913241 -82.537893
96.928036 139.711227 -80.185590
101.038267 146.399531 -84.660771
95.062477 138.472652 -80.675653
100.473882 147.142675 -86.359899
93.536504 137.729508 -81.424502
100.886516 149.372110 -88.943149
92.339558 137.481793 -82.444907
