# .PCD v.7 - Point Cloud Data file format
VERSION .7
FIELDS x y z
SIZE 4 4 4
TYPE F F F
COUNT 1 1 1
WIDTH 1463
HEIGHT 1
VIEWPOINT 0 0 0 1 0 0 0
POINTS 1463
DATA ascii
123.562031 -4.536935 -40.147737
115.282996 -4.257739 -39.695119
105.181461 -3.908744 -38.282921
104.497312 -3.908744 -40.112760
104.707951 -3.943643 -42.304758
105.793572 -4.013442 -44.906707
108.645685 -4.153040 -48.372176
105.973416 -4.083241 -49.416215
106.891337 -4.153040 -52.134388
107.746113 -4.222839 -54.899387
111.183625 -4.397337 -59.117382
118.001733 -4.711432 -65.409429
107.321733 -4.327538 -61.962231
108.793932 -4.432236 -65.369990
111.026625 -4.571834 -69.377135
112.313396 -4.676533 -72.937172
115.994556 -4.885930 -78.239316
109.699507 -4.676533 -76.812422
109.150762 -4.711432 -79.302671
110.942711 -4.851030 -83.601330
113.404423 -5.025528 -88.601246
128.150970 -5.758417 -103.774609
111.008779 -5.060427 -93.147426
112.383225 -5.200025 -97.693247
114.374587 -5.374522 -102.983340
116.945309 -5.583919 -109.053265
121.494370 -5.898015 -117.325749
119.428249 -5.898015 -119.428249
117.325749 -5.898015 -121.494370
119.277008 -6.107412 -127.908932
121.038861 -6.316809 -134.427274
127.197919 -6.770502 -146.324467
123.982436 -6.735603 -147.756513
120.126972 -6.665804 -148.344456
118.750281 -6.735603 -151.993429
121.492580 -7.049698 -161.226099
126.296846 -7.503392 -173.832695
122.097357 -7.433593 -174.373097
122.388645 -7.642990 -181.448627
121.380518 -7.782588 -186.909607
120.747991 -7.957085 -193.237179
124.048563 -8.410779 -206.451478
123.424767 -8.620176 -213.777968
120.159543 -8.655075 -216.773554
119.642321 -8.899372 -225.014480
119.780480 -9.213467 -235.082429
122.231045 -9.736960 -250.610781
123.329358 -10.190653 -264.480661
114.223372 -9.806759 -256.549895
108.947576 -9.736960 -256.664406
104.077193 -9.702060 -257.600093
103.505246 -10.085955 -269.640385
98.099985 -10.016156 -269.527493
93.381140 -10.016156 -271.198524
88.633851 -10.016156 -272.786944
84.151757 -10.051055 -275.247994
79.610670 -10.085955 -277.635399
73.718493 -9.946357 -275.121162
69.872837 -10.085955 -280.244643
63.847182 -9.911457 -276.552527
63.790006 -10.714145 -300.108384
53.775358 -9.841658 -276.650235
49.459583 -9.946357 -280.499233
45.807377 -10.225553 -289.216394
40.752878 -10.225553 -289.971793
36.538531 -10.469849 -297.582456
30.503718 -10.190653 -290.223489
25.172666 -10.085955 -287.724887
20.077626 -10.051055 -287.123432
15.272790 -10.190653 -291.422189
10.254202 -10.260452 -293.641915
5.180207 -10.365151 -296.773869
0.000000 -10.225553 -292.821512
-5.145324 -10.295352 -294.775391
-10.463471 -10.469849 -299.634608
-16.528088 -11.028241 -315.374698
-20.635338 -10.330251 -295.099083
-25.869487 -10.365151 -295.689589
-31.026042 -10.365151 -295.193070
-36.294941 -10.400050 -295.598573
-44.786439 -11.237638 -318.672073
-46.432733 -10.365151 -293.164740
-51.195007 -10.295352 -290.341311
-56.445057 -10.330251 -290.384644
-61.504371 -10.330251 -289.355315
-70.366788 -10.923542 -304.792046
-72.048808 -10.400050 -288.971985
-76.563768 -10.330251 -285.739873
-81.538956 -10.330251 -284.360132
-92.917565 -11.098040 -303.919660
-91.413310 -10.330251 -281.341239
-96.634839 -10.365151 -280.647950
-101.518103 -10.365151 -278.918695
-106.728593 -10.400050 -278.037491
-116.806059 -10.888643 -289.105140
-116.757439 -10.434950 -275.063288
-121.540172 -10.434950 -272.983696
-126.285883 -10.434950 -270.820951
-131.869335 -10.504749 -270.372204
-145.642175 -11.202738 -285.838863
-139.817301 -10.400050 -262.958098
-144.869772 -10.434950 -261.351987
-150.408319 -10.504749 -260.514851
-155.446747 -10.539648 -258.706832
-166.293286 -10.958442 -266.124887
-164.380791 -10.539648 -253.124221
-169.332234 -10.574548 -251.045361
-173.687790 -10.574548 -248.051871
-179.165293 -10.644346 -246.599870
-193.666389 -11.237638 -257.003979
-190.738794 -10.818844 -244.134523
-193.083667 -10.714145 -238.438471
-196.573188 -10.679246 -234.266804
-201.287428 -10.714145 -231.554698
-218.672418 -11.412135 -242.860324
-213.335449 -10.923542 -228.774261
-217.989854 -10.958442 -225.735102
-218.362894 -10.783944 -218.362894
-222.140594 -10.783944 -214.518678
-243.392424 -11.621532 -226.967107
-231.719942 -10.888643 -208.641573
-235.325947 -10.888643 -204.565725
-238.860270 -10.888643 -200.427565
-242.321834 -10.888643 -196.228352
-253.584891 -11.237638 -198.122231
-247.426191 -10.818844 -186.449008
-250.642491 -10.818844 -182.102429
-256.238401 -10.923542 -179.420060
-266.787480 -11.237638 -179.950427
-263.182137 -10.958442 -170.912478
-266.972419 -10.993341 -166.822882
-269.843218 -10.993341 -162.138163
-273.497319 -11.028241 -157.903751
-291.945029 -11.656432 -161.827772
-278.841473 -11.028241 -148.262641
-281.386544 -11.028241 -143.373605
-286.540642 -11.132939 -139.755209
-288.936065 -11.132939 -134.733100
-303.112332 -11.586633 -134.954305
-289.782394 -10.993341 -123.005328
-292.811616 -11.028241 -118.303572
-293.898690 -10.993341 -112.817137
-303.335820 -11.272537 -110.405209
-314.665883 -11.621532 -108.348152
-304.152691 -11.167839 -98.825200
-303.919660 -11.098040 -92.917565
-305.495007 -11.098040 -87.599284
-311.803984 -11.272537 -83.547626
-317.093420 -11.412135 -79.060269
-313.556035 -11.237638 -72.390115
-312.816557 -11.167839 -66.491212
-315.891403 -11.237638 -61.403069
-322.820170 -11.447035 -56.921906
-317.841907 -11.237638 -50.341213
-314.713414 -11.098040 -44.230086
-313.453520 -11.028241 -38.487253
-313.083559 -10.993341 -32.906408
-329.539576 -11.551733 -28.830977
-315.038210 -11.028241 -22.029618
-314.376677 -10.993341 -16.475783
-314.616338 -10.993341 -10.986645
-316.758641 -11.063140 -5.529043
-339.792881 -11.865829 -0.000000
-328.949892 -5.741842 -0.000000
-324.901009 -5.672032 -5.671168
-326.751027 -5.706937 -11.410397
-327.500600 -5.724389 -17.163579
-332.138235 -5.811651 -23.225368
-325.706052 -5.706937 -28.495587
-327.147870 -5.741842 -34.384627
-325.505554 -5.724389 -39.967057
-325.748574 -5.741842 -45.780976
-336.750428 -5.951271 -53.336028
-323.952404 -5.741842 -57.121549
-318.980245 -5.672032 -62.003479
-317.849553 -5.672032 -67.561008
-317.596262 -5.689484 -73.322875
-331.790597 -5.968723 -82.724687
-313.878081 -5.672032 -84.103378
-312.362470 -5.672032 -89.568497
-309.795550 -5.654580 -94.714005
-308.095380 -5.654580 -100.106257
-320.481979 -5.916366 -110.350795
-304.414038 -5.654580 -110.797649
-302.433989 -5.654580 -116.093531
-301.288858 -5.672032 -121.728600
-299.118513 -5.672032 -126.968276
-308.731336 -5.898913 -137.456047
-293.599000 -5.654580 -136.907462
-292.063576 -5.672032 -142.448924
-288.642146 -5.654580 -147.070519
-287.797076 -5.689484 -153.024420
-288.580544 -5.759294 -159.962808
-291.806111 -5.881461 -168.474337
-278.536944 -5.672032 -167.361880
-276.421573 -5.689484 -172.727369
-271.687878 -5.654580 -176.436171
-267.738352 -5.637127 -180.591799
-273.555113 -5.829104 -191.545352
-261.272690 -5.637127 -189.825721
-258.718495 -5.654580 -194.958370
-254.488708 -5.637127 -198.828369
-253.310997 -5.689484 -205.127201
-248.926526 -5.672032 -208.874156
-244.488662 -5.654580 -212.530751
-238.513157 -5.602222 -214.758211
-235.460025 -5.619675 -219.570025
-230.872907 -5.602222 -222.951375
-226.946706 -5.602222 -226.946706
-221.562270 -5.567318 -229.434447
-218.888131 -5.602222 -234.728782
-214.089182 -5.584770 -237.770125
-210.562874 -5.602222 -242.224878
-216.586432 -5.881461 -258.117659
-201.351854 -5.584770 -248.648831
-196.981666 -5.584770 -252.125035
-192.551476 -5.584770 -255.524440
-187.474938 -5.567318 -258.037115
-194.986286 -5.933818 -278.469276
-178.914475 -5.584770 -265.251618
-173.713391 -5.567318 -267.495164
-166.899145 -5.497508 -267.094464
-163.242203 -5.532413 -271.680650
-163.975022 -5.724389 -284.013069
-152.207035 -5.480056 -274.588760
-146.922219 -5.462603 -276.320505
-141.623463 -5.445151 -277.951696
-138.504184 -5.514960 -283.975661
-139.442785 -5.759294 -299.036018
-126.069155 -5.410246 -283.155959
-120.717530 -5.392794 -284.392679
-115.735808 -5.392794 -286.456176
-111.077144 -5.410246 -289.365854
-109.429777 -5.584770 -300.655840
-100.585238 -5.392794 -292.120742
-95.471708 -5.392794 -293.831705
-90.036770 -5.375341 -294.497005
-87.639329 -5.549865 -305.634663
-80.221684 -5.410246 -299.391400
-74.258710 -5.357889 -297.835419
-69.274372 -5.375341 -300.060272
-63.611288 -5.340436 -299.267579
-59.714119 -5.462603 -307.202513
-53.996358 -5.427698 -306.228564
-48.174477 -5.375341 -304.161677
-42.719635 -5.357889 -303.965995
-37.773742 -5.410246 -307.642444
-34.071089 -5.689484 -324.164759
-26.927023 -5.392794 -307.777279
-21.621213 -5.410246 -309.197756
-16.064691 -5.357889 -306.532574
-10.747408 -5.375341 -307.765493
-5.845666 -5.846556 -334.897964
0.000000 -5.305532 -303.953699
5.304723 -5.305532 -303.907406
10.642725 -5.322984 -304.767778
15.855380 -5.288079 -302.538664
21.900197 -5.480056 -313.187405
26.229883 -5.253174 -299.808935
31.144738 -5.200817 -296.322387
35.824130 -5.131007 -291.764125
40.910660 -5.131007 -291.094470
46.766781 -5.218270 -295.273835
51.739276 -5.200817 -293.428013
55.516961 -5.078650 -285.610004
60.700967 -5.096103 -285.575598
65.225870 -5.061198 -282.524282
70.388549 -5.078650 -282.313052
79.445345 -5.357889 -296.494064
79.647063 -5.043745 -277.762319
84.482554 -5.043745 -276.329982
89.292310 -5.043745 -274.813471
93.749348 -5.026293 -272.267876
102.248448 -5.218270 -280.925301
103.194250 -5.026293 -268.830212
107.495718 -5.008841 -266.061238
112.513426 -5.026293 -265.065021
118.342336 -5.078650 -265.801239
130.146600 -5.375341 -279.100284
126.231662 -5.026293 -258.813261
130.275429 -5.008841 -255.679925
136.595417 -5.078650 -256.898617
140.088641 -5.043745 -252.726598
148.477383 -5.183365 -257.170371
142.128858 -4.816864 -236.542143
143.586248 -4.729602 -229.786031
144.851918 -4.642340 -223.052394
143.690688 -4.485268 -213.030206
153.121584 -4.659793 -218.680285
143.985454 -4.275840 -198.178975
137.794650 -3.996601 -182.859677
137.271599 -3.891887 -175.699634
136.541726 -3.787172 -168.614989
152.317461 -4.136220 -181.524882
133.815658 -3.560291 -153.937305
133.805739 -3.490481 -148.606328
128.878058 -3.298505 -138.204797
127.103120 -3.193790 -131.619134
142.106816 -3.507934 -142.106816
126.584522 -3.071624 -122.241252
123.579951 -2.949457 -115.240169
124.829316 -2.932004 -112.396821
124.508115 -2.879647 -108.233253
131.739577 -3.001814 -110.542630
125.878471 -2.827290 -101.934376
121.335173 -2.687671 -94.797427
119.777081 -2.617861 -90.258505
117.289598 -2.530599 -85.215881
115.482847 -2.460789 -80.861960
128.481252 -2.705123 -86.661699
114.041825 -2.373527 -74.059627
115.316975 -2.373527 -72.058043
114.842924 -2.338622 -69.004591
114.297943 -2.303718 -65.989948
112.808758 -2.251360 -62.530916
113.882892 -2.251360 -60.552608
113.140594 -2.216456 -57.648012
112.332144 -2.181551 -54.788048
128.676105 -2.478242 -60.002653
109.608758 -2.094289 -48.800963
109.523394 -2.076836 -46.489923
110.318074 -2.076836 -44.571395
112.012589 -2.094289 -42.997604
125.899633 -2.338622 -45.823719
109.663450 -2.024479 -37.760154
110.305753 -2.024479 -35.840512
107.089820 -1.954670 -32.740644
120.139411 -2.181551 -34.449422
114.927667 -2.076836 -30.794775
105.746126 -1.902312 -26.365470
107.164383 -1.919765 -24.740847
114.425839 -2.041932 -24.321963
138.388352 -2.460789 -26.899971
120.128247 -2.129194 -21.181851
106.654094 -1.884860 -16.892349
105.942545 -1.867407 -14.889254
107.178658 -1.884860 -13.159884
126.285044 -2.216456 -13.273093
110.560770 -1.937217 -9.672814
103.730860 -1.815050 -7.253568
102.843176 -1.797598 -5.389782
128.901781 -2.251360 -4.501349
106.967409 -1.867407 -1.867123
102.984313 -1.797598 -0.000000
103.000000 -0.000000 -0.000000
102.984313 -0.000000 -1.797598
128.921417 -0.000000 -4.502035
101.860213 -0.000000 -5.338268
101.751533 -0.000000 -7.115160
101.611859 -0.000000 -8.889886
100.446711 -0.000000 -10.557375
120.098084 -0.000000 -14.746191
99.026807 -0.000000 -13.917310
98.768834 -0.000000 -15.643447
99.465583 -0.000000 -17.538466
100.125973 -0.000000 -19.462518
99.771055 -0.000000 -21.206992
99.385747 -0.000000 -22.945008
99.940460 -0.000000 -24.917955
99.490360 -0.000000 -26.658362
120.157712 -0.000000 -34.454669
99.455695 -0.000000 -30.406657
118.882065 -0.000000 -38.627124
102.116006 -0.000000 -35.161361
103.366188 -0.000000 -37.622216
120.431875 -0.000000 -46.229465
101.990224 -0.000000 -41.206725
102.176039 -0.000000 -43.371155
102.317091 -0.000000 -45.554504
103.319088 -0.000000 -48.178482
113.248050 -0.000000 -55.234764
107.811789 -0.000000 -54.932850
105.070764 -0.000000 -55.867116
104.954365 -0.000000 -58.177154
105.655099 -0.000000 -61.000000
108.003080 -0.000000 -64.894797
118.726733 -0.000000 -74.188697
108.188503 -0.000000 -70.258436
107.774884 -0.000000 -72.695077
108.947222 -0.000000 -76.285666
111.644345 -0.000000 -81.114365
113.406242 -0.000000 -85.457733
108.745484 -0.000000 -84.961284
108.023289 -0.000000 -87.475534
109.544355 -0.000000 -91.918628
115.470566 -0.000000 -100.377031
112.958013 -0.000000 -101.707852
111.897116 -0.000000 -104.345749
110.778329 -0.000000 -106.977389
113.137085 -0.000000 -113.137085
132.679749 -0.000000 -137.393902
114.575724 -0.000000 -122.867422
115.759595 -0.000000 -128.564055
113.498212 -0.000000 -130.564757
115.058982 -0.000000 -137.121955
116.424272 -0.000000 -143.772003
124.979279 -0.000000 -159.966183
114.344854 -0.000000 -151.740747
118.732621 -0.000000 -163.421433
118.730322 -0.000000 -169.564473
119.108088 -0.000000 -176.585003
127.445534 -0.000000 -196.248913
114.462561 -0.000000 -183.178389
113.823415 -0.000000 -189.433973
115.500000 -0.000000 -200.051868
116.354309 -0.000000 -209.908730
120.184720 -0.000000 -226.034584
115.313587 -0.000000 -226.315657
118.360210 -0.000000 -242.674393
121.291441 -0.000000 -260.110335
119.580573 -0.000000 -268.582365
123.861768 -0.000000 -291.800039
111.258158 -0.000000 -275.373605
107.510385 -0.000000 -280.074128
102.948063 -0.000000 -282.847479
98.321583 -0.000000 -285.546610
97.958387 -0.000000 -301.484916
87.419140 -0.000000 -285.935122
83.518119 -0.000000 -291.262294
78.680990 -0.000000 -293.641451
73.544256 -0.000000 -294.969901
71.759386 -0.000000 -310.824051
63.205154 -0.000000 -297.356871
57.433508 -0.000000 -295.469782
52.962694 -0.000000 -300.366365
47.712512 -0.000000 -301.244944
42.308623 -0.000000 -301.041493
36.926411 -0.000000 -300.741484
31.985710 -0.000000 -304.323700
26.669657 -0.000000 -304.835578
22.531341 -0.000000 -322.213188
15.962467 -0.000000 -304.582008
10.783944 -0.000000 -308.811766
5.410246 -0.000000 -309.952785
0.000000 -0.000000 -313.000000
-5.619675 -0.000000 -321.950958
-10.853743 -0.000000 -310.810547
-16.381154 -0.000000 -312.571044
-21.833776 -0.000000 -312.237548
-27.628370 -0.000000 -315.793719
-33.762694 -0.000000 -321.230572
-37.901366 -0.000000 -308.681853
-43.839527 -0.000000 -311.934442
-48.807553 -0.000000 -308.158762
-55.741065 -0.000000 -316.123289
-60.677261 -0.000000 -312.157444
-64.868448 -0.000000 -305.182051
-70.634631 -0.000000 -305.952200
-75.963475 -0.000000 -304.672858
-81.269180 -0.000000 -303.300709
-90.133415 -0.000000 -314.332575
-92.974202 -0.000000 -304.104912
-98.885438 -0.000000 -304.338085
-103.205105 -0.000000 -299.729388
-109.104426 -0.000000 -299.761946
-117.186320 -0.000000 -305.280799
-118.750290 -0.000000 -293.917282
-124.252499 -0.000000 -292.720543
-129.342252 -0.000000 -290.507456
-138.196172 -0.000000 -296.362646
-139.840396 -0.000000 -286.715301
-144.822969 -0.000000 -284.231081
-149.761429 -0.000000 -281.660282
-157.078317 -0.000000 -283.376785
-173.500000 -0.000000 -300.510815
-164.812184 -0.000000 -274.293536
-171.693842 -0.000000 -274.767583
-175.918408 -0.000000 -270.890593
-186.211237 -0.000000 -276.069512
-184.691613 -0.000000 -263.766958
-189.854636 -0.000000 -261.312489
-194.988068 -0.000000 -258.757905
-200.705641 -0.000000 -256.891506
-218.374176 -0.000000 -269.669649
-208.263186 -0.000000 -248.198400
-213.875243 -0.000000 -246.035323
-217.467447 -0.000000 -241.522068
-223.695462 -0.000000 -239.884014
-238.962479 -0.000000 -247.452891
-231.223917 -0.000000 -231.223917
-237.382134 -0.000000 -229.237262
-240.615368 -0.000000 -224.377460
-254.155530 -0.000000 -228.842667
-252.827709 -0.000000 -219.779775
-253.560711 -0.000000 -212.762699
-255.681021 -0.000000 -207.046409
-263.195592 -0.000000 -205.630933
-267.542896 -0.000000 -201.608033
-267.784625 -0.000000 -194.556919
-271.958479 -0.000000 -190.427377
-275.240474 -0.000000 -185.652044
-278.438629 -0.000000 -180.820160
-295.968786 -0.000000 -184.941823
-288.865380 -0.000000 -173.567831
-290.118510 -0.000000 -167.500000
-294.746841 -0.000000 -163.380842
-306.382815 -0.000000 -162.906632
-308.288257 -0.000000 -157.080713
-301.994800 -0.000000 -147.292705
-304.519416 -0.000000 -141.999736
-307.864819 -0.000000 -137.070249
-320.335689 -0.000000 -135.974433
-323.587165 -0.000000 -130.737701
-316.483765 -0.000000 -121.486735
-319.495491 -0.000000 -116.286849
-323.367353 -0.000000 -111.344309
-349.988798 -0.000000 -113.718254
-325.143617 -0.000000 -99.406380
-327.790238 -0.000000 -93.992338
-332.278484 -0.000000 -89.033752
-333.781730 -0.000000 -83.221132
-351.747593 -0.000000 -81.207331
-333.548332 -0.000000 -70.897887
-334.734870 -0.000000 -65.065867
-335.819444 -0.000000 -59.214029
-334.826347 -0.000000 -53.031284
-350.554896 -0.000000 -49.267278
-336.473145 -0.000000 -41.313707
-337.142923 -0.000000 -35.435149
-337.710003 -0.000000 -29.545797
-337.176649 -0.000000 -23.577688
-357.509373 -0.000000 -18.736272
-338.793490 -0.000000 -11.830929
-341.947912 -0.000000 -5.968723
-349.000000 -0.000000 -0.000000
-349.946693 6.108342 -0.000000
-379.884257 6.631914 -6.630904
-347.735038 6.073437 -12.143175
-345.473194 6.038533 -18.105483
-345.104592 6.038533 -24.132064
-345.626912 6.055985 -30.238437
-356.978983 6.265414 -37.520003
-342.376269 6.021080 -42.038520
-341.590450 6.021080 -48.007407
-342.675655 6.055985 -54.274492
-341.676243 6.055985 -60.246740
-360.202307 6.405033 -70.016236
-341.321520 6.090890 -72.550129
-340.003361 6.090890 -78.495961
-337.611485 6.073437 -84.175997
-349.611893 6.317771 -93.678225
-331.584775 6.021080 -95.080404
-330.831051 6.038533 -101.145203
-330.917260 6.073437 -107.521535
-329.935724 6.090890 -113.605981
-343.875117 6.387581 -125.160307
-326.703383 6.108342 -125.409679
-325.391967 6.125795 -131.466888
-322.127630 6.108342 -136.735066
-321.519025 6.143247 -143.149493
-320.784092 6.178152 -149.584079
-315.428662 6.125795 -153.844838
-312.695658 6.125795 -159.326396
-309.867404 6.125795 -164.759421
-311.317193 6.213057 -172.565938
-303.928620 6.125795 -175.473270
-300.819899 6.125795 -180.750831
-298.467465 6.143247 -186.503171
-294.328535 6.125795 -191.139185
-301.723715 6.352676 -203.515216
-285.840522 6.090890 -200.147688
-282.303928 6.090890 -205.105810
-279.479856 6.108342 -210.603177
-277.337539 6.143247 -216.679833
-270.405604 6.073437 -218.970141
-265.776936 6.055985 -223.013329
-263.353527 6.090890 -228.929729
-258.575011 6.073437 -232.821986
-261.053506 6.230509 -243.436332
-246.695973 5.986175 -238.231532
-242.500686 5.986175 -242.500686
-238.926084 6.003628 -247.415203
-233.889810 5.986175 -250.816113
-236.167129 6.160699 -262.290169
-224.993974 5.986175 -258.825960
-220.442571 5.986175 -262.713225
-215.824018 5.986175 -266.520466
-209.293020 5.933818 -267.882850
-213.611794 6.195604 -283.472425
-202.755027 6.021080 -279.068353
-194.412797 5.916366 -277.650249
-189.537522 5.916366 -281.000933
-183.515400 5.881461 -282.588935
-182.264463 6.003628 -291.684113
-173.026436 5.864009 -287.964348
-167.974413 5.864009 -290.940217
-163.355958 5.881461 -294.701950
-157.249020 5.846556 -295.742394
-156.148946 6.003628 -306.459562
-146.393663 5.829104 -300.151490
-141.133001 5.829104 -302.660697
-135.829348 5.829104 -305.077711
-130.484320 5.829104 -307.401795
-125.474096 5.846556 -310.559284
-121.468232 5.916366 -316.435563
-114.217329 5.829104 -313.809533
-108.397683 5.811651 -314.809731
-103.195956 5.829104 -317.604496
-100.560548 6.003628 -328.918733
-92.600046 5.864009 -322.934738
-85.914836 5.794199 -320.638532
-80.305837 5.794199 -322.089118
-74.672375 5.794199 -323.441592
-69.224048 5.811651 -325.673542
-64.292838 5.881461 -330.757977
-57.468793 5.776747 -325.921719
-51.771922 5.776747 -326.875049
-46.337584 5.811651 -329.709043
-41.307415 5.916366 -336.421899
-34.593652 5.776747 -329.136611
-28.931300 5.794199 -330.686267
-23.295114 5.829104 -333.135647
-17.320563 5.776747 -330.496032
-12.108281 6.055985 -346.735799
-5.793316 5.794199 -331.898877
0.000000 5.689484 -325.950349
5.653718 5.654580 -323.901314
11.445291 5.724389 -327.750266
17.843843 5.951271 -340.480807
22.806893 5.706937 -326.153762
28.234160 5.654580 -322.717923
33.339501 5.567318 -317.204166
38.626698 5.532413 -314.589209
47.172496 5.916366 -335.649746
49.738583 5.549865 -314.037056
54.517223 5.480056 -309.182537
60.095679 5.497508 -309.165468
64.858568 5.445151 -305.135571
73.547791 5.706937 -318.570484
74.984365 5.410246 -300.745863
80.739243 5.445151 -301.322958
85.985757 5.445151 -299.867971
90.329097 5.392794 -295.453164
98.561408 5.567318 -303.340821
99.608682 5.340436 -289.284618
104.300256 5.322984 -286.562598
109.643891 5.340436 -285.632101
114.612159 5.340436 -283.675048
123.842903 5.532413 -291.755596
124.442457 5.340436 -279.502334
128.878938 5.322984 -276.381774
133.244532 5.305532 -273.191775
138.899935 5.340436 -272.606471
144.575218 5.375341 -271.906440
150.268092 5.410246 -271.090814
142.978220 4.991388 -247.645542
140.583980 4.764507 -233.971033
141.466894 4.659793 -226.394355
138.861801 4.450364 -213.828423
142.013365 4.432911 -210.543472
139.357846 4.240935 -199.023630
142.810062 4.240935 -196.561188
139.599820 4.048958 -185.255219
149.582953 4.240935 -191.457449
133.395603 3.699910 -164.729851
133.679460 3.630101 -159.312976
134.471617 3.577743 -154.691900
131.129624 3.420672 -145.634202
139.106476 3.560291 -149.173432
123.630358 3.106528 -128.022983
125.845837 3.106528 -125.845837
126.584522 3.071624 -122.241252
123.579951 2.949457 -115.240169
121.114157 2.844742 -109.051677
119.225952 2.757480 -103.641539
121.016588 2.757480 -101.544974
121.216305 2.722575 -98.159029
126.850408 2.809837 -99.106401
120.575595 2.635313 -90.860228
116.480704 2.513147 -84.628185
113.844792 2.425884 -79.714982
129.310164 2.722575 -87.220807
113.203283 2.356075 -73.515071
112.773218 2.321170 -70.468528
112.271814 2.286265 -67.459712
110.834369 2.233908 -63.990252
128.549515 2.565504 -71.256160
110.351639 2.181551 -58.675007
109.577111 2.146646 -55.832327
108.737516 2.111741 -53.034830
111.458879 2.146646 -51.974129
115.089196 2.199003 -51.241012
107.682665 2.041932 -45.708579
107.536946 2.024479 -43.447747
107.345397 2.007027 -41.206037
111.806391 2.076836 -40.694198
116.281072 2.146646 -40.038784
103.649372 1.902312 -33.677722
104.221343 1.902312 -31.863662
103.800451 1.884860 -29.764300
103.338322 1.867407 -27.689420
112.537162 2.024479 -28.058666
101.319053 1.815050 -23.391346
105.623851 1.884860 -22.451043
122.684710 2.181551 -23.847492
127.020851 2.251360 -22.397203
123.442239 2.181551 -19.551330
102.972194 1.815050 -14.471798
102.216683 1.797598 -12.550631
102.420154 1.797598 -10.764792
109.564727 1.919765 -9.585672
106.723096 1.867407 -7.462806
99.847744 1.745241 -5.232799
99.923861 1.745241 -3.489418
99.969541 1.745241 -1.744975
104.984008 1.832503 -0.000000
116.928727 4.083241 -0.000000
98.924623 3.455050 -1.726736
99.878203 3.489950 -3.487824
98.804098 3.455050 -5.178103
108.668243 3.804045 -7.598824
98.563196 3.455050 -8.623162
97.403774 3.420151 -10.237549
97.210269 3.420151 -11.935920
100.945812 3.559749 -14.187009
102.657013 3.629548 -16.259274
97.436576 3.455050 -17.180697
98.102920 3.489950 -19.069276
96.777622 3.455050 -20.570719
102.246533 3.664447 -23.605472
96.970465 3.489950 -24.177452
97.499078 3.524849 -26.124799
97.028288 3.524849 -27.822414
100.350831 3.664447 -30.680328
115.958213 4.257739 -37.677107
103.943685 3.838945 -35.790681
100.485860 3.734246 -36.573862
99.832253 3.734246 -38.322012
99.148237 3.734246 -40.058488
118.672790 4.502035 -50.373611
100.428785 3.838945 -44.713776
100.538881 3.873844 -46.882050
100.603611 3.908744 -49.067660
102.403331 4.013442 -52.177103
112.066035 4.432236 -59.586568
103.142256 4.118141 -57.172686
102.994243 4.153040 -59.463754
103.654062 4.222839 -62.281644
104.246373 4.292638 -65.140364
118.180514 4.920829 -76.747323
104.395101 4.397337 -70.415385
104.787589 4.467136 -73.373060
105.108141 4.536935 -76.365535
106.951966 4.676533 -80.594087
107.891708 4.781231 -84.294241
106.404139 4.781231 -86.164373
105.649735 4.816131 -88.650654
108.611976 5.025528 -94.414950
122.544200 5.758417 -110.339293
112.559860 5.374522 -104.963767
109.991944 5.339623 -106.217986
108.828109 5.374522 -108.828109
112.466103 5.653718 -116.462059
122.003340 6.247010 -130.832564
114.351631 5.967814 -127.000353
113.429072 6.037613 -130.485221
115.631287 6.281909 -137.804002
124.529531 6.910100 -153.781164
111.366844 6.316809 -142.543060
111.267957 6.456407 -147.657566
115.723156 6.875201 -159.279260
119.231222 7.259095 -170.279832
130.212576 8.131583 -193.048083
117.026060 7.503392 -180.204330
116.511219 7.677889 -186.456927
118.901320 8.061784 -197.885027
115.929336 8.096683 -200.795500
122.097600 8.794673 -220.269902
112.604538 8.375879 -211.778334
114.789627 8.829573 -225.287328
114.783275 9.143668 -235.340590
115.726863 9.562462 -248.177059
123.572617 10.609447 -277.548641
115.976452 10.365151 -273.223400
113.436653 10.574548 -280.765569
112.458987 10.958442 -292.965678
108.012527 11.028241 -296.761979
104.443715 11.202738 -303.326572
97.281056 10.993341 -299.400305
91.748790 10.958442 -300.096771
87.323814 11.063140 -304.534330
81.995657 11.063140 -306.011959
81.478014 11.761130 -326.790466
70.816416 10.993341 -306.739599
65.452287 10.993341 -307.928798
61.021683 11.167839 -313.929345
55.707109 11.202738 -315.930715
53.311657 11.900728 -336.596554
44.230086 11.098040 -314.713414
38.487253 11.028241 -313.453520
33.115338 11.063140 -315.071391
27.872848 11.167839 -318.588110
23.563325 11.796030 -336.971250
16.789608 11.202738 -320.364804
11.300549 11.307437 -323.605376
5.668577 11.342336 -324.752550
0.000000 11.412135 -326.800800
-6.174388 12.354422 -353.730470
-11.405183 11.412135 -326.601722
-17.155736 11.447035 -327.350952
-23.145041 11.586633 -330.989512
-29.005182 11.621532 -331.530752
-35.935887 12.005427 -341.907124
-40.070589 11.481934 -326.348760
-45.481881 11.412135 -323.620398
-51.435587 11.481934 -324.751514
-56.921906 11.447035 -322.820170
-64.644846 11.830929 -332.568900
-68.569062 11.516834 -322.592074
-74.188627 11.516834 -321.346247
-80.027367 11.551733 -320.972239
-86.651562 11.691331 -323.388032
-92.833203 11.761130 -323.747853
-97.008275 11.586633 -317.299771
-103.148802 11.656432 -317.459371
-108.673522 11.656432 -315.610825
-114.165139 11.656432 -313.666142
-125.710524 12.249723 -327.487112
-125.042383 11.656432 -309.490759
-131.205683 11.726231 -309.101220
-136.173771 11.691331 -305.851298
-142.335594 11.761130 -305.239667
-153.774540 12.249723 -315.284530
-152.901598 11.761130 -300.086283
-158.115538 11.761130 -297.372077
-163.765829 11.796030 -295.441376
-168.897050 11.796030 -292.538271
-181.182963 12.284623 -301.539088
-179.533197 11.830929 -287.313174
-185.064467 11.865829 -284.974289
-190.009768 11.865829 -281.701065
-196.043644 11.935628 -279.979339
-212.648643 12.633618 -292.685747
-205.093909 11.900728 -272.168810
-212.273819 12.040326 -271.698098
-216.354337 12.005427 -267.175356
-221.626634 12.040326 -264.124337
-239.315672 12.738316 -275.301189
-230.040709 12.005427 -255.486090
-233.782936 11.970527 -250.701506
-238.816910 12.005427 -247.302150
-244.509907 12.075226 -244.509907
-261.680182 12.703417 -252.701614
-253.625139 12.110125 -236.509268
-257.714166 12.110125 -232.046878
-261.724692 12.110125 -227.513803
-267.952226 12.214824 -224.838614
-284.262152 12.773216 -230.190952
-274.848221 12.179924 -214.734964
-280.948449 12.284623 -211.709842
-286.217554 12.354422 -207.949225
-288.165870 12.284623 -201.775914
-305.728509 12.877914 -206.216483
-295.032205 12.284623 -191.596154
-300.026147 12.354422 -187.477144
-303.252379 12.354422 -182.212412
-313.310220 12.633618 -180.889740
-319.041723 12.738316 -176.847715
-313.255452 12.389321 -166.560879
-316.114630 12.389321 -161.068449
-319.775763 12.424221 -155.965061
-338.752628 13.052412 -157.962944
-327.763033 12.528919 -145.929504
-328.420046 12.459120 -139.406039
-330.802997 12.459120 -133.653086
-334.018194 12.494020 -128.217572
-355.926550 13.226909 -129.546670
-347.738874 12.843015 -119.736096
-343.122254 12.598718 -111.487179
-344.059992 12.563819 -105.189696
-348.725432 12.668517 -99.995409
-370.689566 13.401407 -99.325970
-348.123969 12.528919 -86.797054
-351.533318 12.598718 -81.157861
-351.918626 12.563819 -74.802613
-352.189484 12.528919 -68.458701
-365.141107 12.947713 -64.384229
-352.389940 12.459120 -55.813083
-354.300007 12.494020 -49.793619
-355.115064 12.494020 -43.602647
-343.894957 12.075226 -36.144816
-358.411624 12.563819 -31.356954
-348.934726 12.214824 -24.399893
-341.323249 11.935628 -17.887994
-349.573709 12.214824 -12.207383
-349.733515 12.214824 -6.104621
-363.778261 12.703417 -0.000000
-360.505262 18.893280 -0.000000
-347.470149 18.212913 -6.065114
-345.315334 18.108241 -12.058677
-345.052288 18.108241 -18.083424
-354.646105 18.631600 -24.799271
-340.231671 17.898897 -29.766414
-339.660357 17.898897 -35.699742
-337.003207 17.794225 -41.378791
-337.218631 17.846561 -47.392988
-352.121505 18.683936 -55.770568
-336.342673 17.898897 -59.306288
-335.256409 17.898897 -65.167244
-336.021637 18.003569 -71.423604
-334.723945 18.003569 -77.277112
-365.300171 19.730656 -91.079562
-353.044353 19.154960 -94.597949
-350.379677 19.102624 -100.469756
-348.572873 19.102624 -106.569422
-346.659891 19.102624 -112.636627
-355.027763 19.678320 -122.245862
-342.517754 19.102624 -124.666267
-342.154462 19.207296 -131.340792
-340.736051 19.259632 -137.666301
-338.281547 19.259632 -143.591997
-353.057575 20.254015 -157.191360
-333.969252 19.311968 -155.732420
-330.302919 19.259632 -161.099498
-327.441039 19.259632 -166.839542
-328.006366 19.468976 -174.404079
-339.760797 20.358687 -188.332485
-322.584778 19.521312 -186.244408
-314.149278 19.207296 -188.759930
-314.194660 19.416640 -196.330613
-309.882844 19.364304 -201.240272
-307.979323 19.468976 -207.734676
-297.762711 19.050288 -208.495695
-294.078608 19.050288 -213.660616
-290.304927 19.050288 -218.760453
-286.442816 19.050288 -223.793655
-281.717370 18.997952 -228.130228
-277.693042 18.997952 -233.012129
-273.584126 18.997952 -237.823052
-266.423367 18.788608 -239.888677
-262.196155 18.788608 -244.501870
-267.227677 19.468976 -258.058768
-253.503440 18.788608 -253.503440
-248.346879 18.736272 -257.170721
-242.458679 18.631600 -260.005101
-237.884037 18.631600 -264.196988
-243.719491 19.468976 -280.367203
-229.160689 18.683936 -273.103074
-224.987939 18.736272 -277.836966
-218.875113 18.631600 -280.147369
-213.351541 18.579264 -283.127058
-214.834575 19.154960 -295.694425
-207.350114 18.945616 -296.126652
-197.124572 18.474593 -292.249196
-191.994097 18.474593 -295.644983
-186.275946 18.422257 -298.103828
-184.645272 18.788608 -307.301337
-175.259483 18.369921 -303.558330
-168.966677 18.265249 -304.823954
-163.621031 18.265249 -307.726403
-158.225544 18.265249 -310.535115
-156.721794 18.736272 -321.327296
-147.713677 18.317585 -316.773003
-140.944191 18.160577 -316.565836
-135.788084 18.212913 -319.896680
-130.184436 18.212913 -322.217787
-127.762024 18.683936 -332.831452
-118.518342 18.160577 -325.626467
-112.817325 18.160577 -327.645303
-107.081944 18.160577 -329.564335
-101.313944 18.160577 -331.382978
-96.340862 18.317585 -335.980512
-89.687127 18.160577 -334.716914
-83.107080 18.003569 -333.324294
-77.277112 18.003569 -334.723945
-71.423604 18.003569 -336.021637
-67.072719 18.422257 -345.059228
-60.346749 18.212913 -342.243422
-53.583486 17.951233 -338.312819
-47.670953 17.951233 -339.196453
-41.865600 18.003569 -340.967950
-38.622528 19.364304 -367.468807
-30.027523 18.055905 -343.216160
-24.102663 18.108241 -344.684135
-17.926631 17.951233 -342.060505
-11.988974 18.003569 -343.319292
-6.413684 19.259632 -367.439697
0.000000 17.689553 -337.536783
5.908258 17.741889 -338.483852
11.745012 17.637217 -336.333143
17.665310 17.689553 -337.074200
24.033002 18.055905 -343.687939
29.157160 17.532545 -333.267865
35.073431 17.584881 -333.701403
40.040065 17.218530 -326.100162
48.365864 18.212913 -344.141007
51.083965 17.113858 -322.531463
57.051955 17.218530 -323.557718
62.309032 17.113858 -320.552180
67.893949 17.113858 -319.415916
77.501755 18.055905 -335.696980
78.275273 16.956850 -313.944974
82.967054 16.799842 -309.637261
88.083073 16.747506 -307.182182
92.846784 16.642834 -303.688147
99.675700 16.904514 -306.770260
102.413422 16.485826 -297.430174
107.247145 16.433490 -294.659109
112.015444 16.381154 -291.810209
117.091174 16.381154 -289.810826
126.423389 16.956850 -297.834840
127.540277 16.433490 -286.460151
132.520271 16.433490 -284.190637
136.584357 16.328818 -280.039431
140.997548 16.276482 -276.723269
151.431498 16.904514 -284.801227
142.338690 15.386771 -256.785795
136.312931 14.287716 -236.100923
135.783710 13.816692 -225.982042
137.060994 13.555013 -219.343442
139.780405 13.450341 -215.242948
136.256078 12.769973 -202.007943
139.760850 12.769973 -199.599180
140.288151 12.508294 -193.090075
142.434691 12.403622 -189.017219
134.030266 11.409238 -171.550917
129.462333 10.781207 -159.872667
130.948965 10.676535 -156.058900
130.376825 10.414855 -149.981380
126.960581 9.943832 -141.004011
131.445295 10.100840 -140.957822
120.704908 9.106456 -124.993591
122.867963 9.106456 -122.867963
122.838529 8.949449 -118.623788
121.238334 8.687769 -113.056575
117.255967 8.269081 -105.577747
117.573343 8.164409 -102.204948
119.339159 8.164409 -100.137444
118.740379 8.007401 -96.154063
132.991307 8.844777 -103.904197
115.643446 7.588714 -87.143587
113.107157 7.327034 -82.177160
113.706090 7.274698 -79.617861
112.594591 7.117690 -75.946011
119.765531 7.484042 -77.776646
122.798452 7.588714 -76.732989
111.279036 6.803674 -66.863190
109.834495 6.646666 -63.412975
109.177634 6.541995 -60.518151
119.916306 7.117690 -63.760631
112.112964 6.594330 -57.124409
106.809911 6.227979 -52.094675
105.892690 6.123307 -49.378572
104.913750 6.018635 -46.710611
121.340120 6.908346 -51.505825
108.331842 6.123307 -43.768905
103.485410 5.809291 -39.724327
103.224529 5.756955 -37.570656
102.920283 5.704619 -35.438295
122.518153 6.751338 -39.808561
101.229382 5.547611 -30.948928
101.754098 5.547611 -29.177518
100.318614 5.442939 -26.880292
105.617291 5.704619 -26.333348
103.141681 5.547611 -23.812133
110.379200 5.913963 -23.461823
119.594391 6.384987 -23.246795
114.081141 6.070971 -20.115583
99.619810 5.285932 -15.778228
120.647135 6.384987 -16.955849
100.109776 5.285932 -12.291935
98.322735 5.181260 -10.334136
97.493286 5.128924 -8.529557
97.627298 5.128924 -6.826766
101.720617 5.338268 -5.330952
95.810035 5.024252 -3.345760
96.852312 5.076588 -1.690563
96.867065 5.076588 -0.000000
115.717430 8.091751 -0.000000
111.710157 7.812725 -1.949908
96.704767 6.766378 -3.377005
95.634905 6.696621 -5.012013
95.532867 6.696621 -6.680309
115.277090 8.091751 -10.085439
99.209929 6.975647 -10.427384
95.052322 6.696621 -11.670958
94.834159 6.696621 -13.328072
95.572391 6.766378 -15.137180
103.152925 7.324430 -18.188644
94.985891 6.766378 -18.463387
94.649194 6.766378 -20.118307
93.311669 6.696621 -21.542696
92.921485 6.696621 -23.167928
109.847308 7.952238 -29.433498
93.974171 6.836134 -26.946660
97.305475 7.115160 -29.749269
114.797515 8.440533 -37.299974
97.151180 7.184917 -33.451834
106.864008 7.952238 -38.895318
98.718465 7.394186 -37.894468
97.117155 7.324430 -39.237877
98.254093 7.463943 -41.706388
102.067852 7.812725 -45.443536
103.067408 7.952238 -48.061121
97.729905 7.603456 -47.666059
99.549641 7.812725 -50.723075
103.053223 8.161507 -54.794371
102.081234 8.161507 -56.584552
111.445139 8.998585 -64.342881
101.754435 8.301020 -61.140233
104.055822 8.580046 -65.021294
105.415079 8.789316 -68.457353
112.474459 9.486880 -75.864980
110.316145 9.417124 -77.244196
104.108969 8.998585 -75.639593
104.366400 9.138098 -78.645723
103.764038 9.207855 -81.069352
111.636414 10.044932 -90.401385
105.456619 9.626393 -88.488610
107.660574 9.975176 -93.587909
106.752177 10.044932 -96.120092
108.706252 10.393715 -101.370220
113.378829 11.021523 -109.488662
114.977642 11.370305 -114.977642
111.567561 11.230792 -115.531591
110.894939 11.370305 -118.920262
110.805106 11.579575 -123.061537
111.258353 11.858601 -127.988095
121.190922 13.183974 -144.429717
109.235007 12.137626 -134.894000
111.777439 12.695678 -143.068598
109.863873 12.765435 -145.794284
114.925274 13.672269 -158.181069
125.307252 15.276668 -178.957302
111.566148 13.951295 -165.403616
111.922338 14.369834 -172.345287
112.597851 14.858129 -180.194229
113.546146 15.416181 -188.972522
121.204032 16.950823 -209.931542
112.201846 16.183502 -202.417489
111.462053 16.602041 -209.629633
111.409612 17.160093 -218.653675
115.010767 18.345953 -235.807017
118.466449 19.601569 -254.052119
118.883535 20.438647 -267.016791
114.205343 20.438647 -269.050927
111.734527 20.857186 -276.552659
113.325910 22.112802 -295.224088
110.203401 22.531341 -302.781355
109.449204 23.507932 -317.863570
100.802408 22.810367 -310.237911
96.247636 23.019636 -314.811831
91.013719 23.089393 -317.402557
85.976795 23.228906 -320.869769
83.742407 24.205496 -335.872451
74.053018 23.019636 -320.758861
69.480752 23.368419 -326.881236
63.574961 23.298662 -327.064820
60.802038 24.484522 -344.825493
52.433942 23.438175 -331.054880
46.925920 23.577688 -333.895269
41.091497 23.577688 -334.663385
35.453105 23.717201 -337.313759
29.734655 23.856714 -339.868662
23.659427 23.717201 -338.345572
17.855296 23.856714 -340.699348
12.010997 24.065983 -343.949945
5.936774 23.786958 -340.117532
0.000000 23.577688 -337.176649
-5.867134 23.507932 -336.127883
-11.802110 23.647445 -337.968206
-18.325172 24.484522 -349.665120
-23.381081 23.438175 -334.365036
-29.734655 23.856714 -339.868662
-35.244557 23.577688 -335.329560
-40.848352 23.438175 -332.683129
-49.980270 25.112331 -355.628097
-52.433942 23.438175 -331.054880
-58.550111 23.577688 -332.054178
-64.907370 23.786958 -333.919472
-70.932588 23.856714 -333.711590
-81.233917 25.251843 -351.862750
-82.294412 23.786958 -330.064858
-87.784115 23.717201 -327.614779
-93.763378 23.786958 -326.991758
-100.330869 23.996227 -328.167485
-112.824713 25.530869 -347.238763
-112.047405 24.065983 -325.409292
-119.074263 24.345009 -327.153848
-125.838234 24.554279 -327.819808
-133.408783 24.903061 -330.198325
-147.726365 26.437704 -348.021506
-145.662761 25.042574 -327.163918
-150.928785 24.972818 -323.667824
-158.741097 25.321600 -325.467480
-163.944226 25.251843 -321.758660
-175.154655 26.088921 -329.417995
-174.106313 25.112331 -314.096104
-180.060311 25.182087 -311.873607
-185.989615 25.251843 -309.538701
-192.420740 25.391356 -307.937555
-205.372058 26.367947 -316.245236
-202.492558 25.321600 -300.207563
-208.273241 25.391356 -297.445014
-214.019004 25.461113 -294.571888
-219.127397 25.461113 -290.791877
-227.854011 25.879652 -291.639835
-229.142400 25.461113 -282.967299
-234.687183 25.530869 -279.689293
-239.532690 25.530869 -275.550839
-254.317743 26.577216 -282.448468
-250.364033 25.670382 -268.482555
-254.318602 25.600626 -263.354622
-257.465271 25.461113 -257.465271
-264.789797 25.740139 -255.704534
-285.262715 27.274781 -266.011785
-275.035123 25.879652 -247.642737
-280.068066 25.949408 -243.459456
-285.038542 26.019165 -239.175736
-292.270333 26.298191 -236.675849
-292.425926 25.949408 -228.468173
-297.962088 26.088921 -224.530538
-301.835305 26.088921 -219.296185
-306.433737 26.158678 -214.567212
-313.439852 26.437704 -211.417850
-325.448140 27.135268 -211.348493
-318.089342 26.228434 -198.764281
-322.364890 26.298191 -193.696367
-328.288008 26.507460 -189.537170
-331.545887 26.507460 -183.778886
-351.437914 27.832833 -186.862854
-338.646545 26.577216 -172.549033
-342.502968 26.646973 -167.049859
-346.270326 26.716729 -161.468505
-349.946921 26.786486 -155.806408
-365.468495 27.763077 -155.132172
-358.871009 27.065512 -144.993299
-354.827689 26.577216 -136.205589
-358.088166 26.646973 -130.333434
-362.194691 26.786486 -124.713633
-378.547176 27.832833 -122.997434
-366.326494 26.786486 -111.997249
-369.184243 26.856242 -105.861878
-370.975559 26.856242 -99.402601
-389.108718 28.042102 -97.015700
-372.274678 26.716729 -85.946382
-375.669480 26.856242 -79.851013
-375.047384 26.716729 -72.901826
-375.280166 26.646973 -66.172019
-380.318999 26.925999 -60.236612
-391.190907 27.623564 -54.978297
-379.219162 26.716729 -46.562258
-346.242652 24.345009 -36.391569
-337.881126 23.717201 -29.560768
-343.321242 24.065983 -24.007360
-356.638499 24.972818 -18.690632
-346.940814 24.275253 -12.115440
-346.102004 24.205496 -6.041233
-344.159597 24.065983 -0.000000
-358.630091 31.376067 -0.000000
-346.622955 30.330198 -6.050326
-342.482218 29.981576 -11.959743
-343.216160 30.068731 -17.987197
-340.862430 29.894420 -23.835423
-360.242607 31.637535 -31.517144
-336.850729 29.632953 -35.404438
-336.181533 29.632953 -41.277902
-334.423432 29.545797 -47.000148
-334.536162 29.632953 -52.985323
-344.352152 30.591666 -60.718575
-341.284237 30.417354 -66.338935
-333.253505 29.807264 -70.835219
-332.937166 29.894420 -76.864601
-375.042142 33.816428 -93.508508
-385.862325 34.949453 -103.391498
-378.253503 34.426518 -108.462447
-373.444965 34.165051 -114.173584
-368.553172 33.903584 -119.750185
-367.349031 33.990740 -126.488415
-375.382839 34.949453 -136.628180
-360.850814 33.816428 -138.517650
-359.302044 33.903584 -145.167449
-356.713799 33.903584 -151.416024
-354.016896 33.903584 -157.618477
-369.269336 35.646699 -172.193119
-348.300433 33.903584 -169.877472
-345.282614 33.903584 -175.930279
-343.039207 33.990740 -182.397182
-341.546274 34.165051 -189.322191
-349.405616 35.298076 -201.729426
-335.584869 34.252207 -201.639732
-328.635376 33.903584 -205.354174
-325.001398 33.903584 -211.058376
-321.268423 33.903584 -216.698287
-324.781900 34.687986 -227.414734
-311.898176 33.729272 -226.607290
-307.100234 33.642117 -231.416625
-302.229672 33.554961 -236.127699
-297.288456 33.467805 -240.739445
-297.620471 33.990740 -249.733227
-287.201995 33.293494 -249.660885
-282.801069 33.293494 -254.635226
-277.585429 33.206338 -258.852600
-273.025551 33.206338 -263.657710
-276.131082 34.165051 -276.131082
-261.581665 32.944871 -270.875743
-258.173197 33.119182 -276.856858
-255.301811 33.380649 -283.541386
-249.660885 33.293494 -287.201995
-252.294594 34.339363 -300.672989
-238.231742 33.119182 -294.191701
-235.514380 33.467805 -301.444660
-226.620426 32.944871 -300.735462
-223.679547 33.293494 -307.868484
-218.272433 33.293494 -311.725341
-210.013507 32.857715 -311.357829
-206.175277 33.119182 -317.482086
-200.603049 33.119182 -321.031987
-195.995872 33.293494 -326.191909
-186.288409 32.596248 -322.660988
-180.628825 32.596248 -325.863027
-174.446535 32.509092 -328.086216
-175.478016 33.816428 -344.394998
-162.890224 32.509092 -333.974451
-156.615747 32.421936 -335.863553
-149.919888 32.247625 -336.725582
-142.463406 31.899002 -335.622752
-141.808819 33.119182 -350.989143
-128.521530 31.376067 -334.810034
-122.317997 31.288912 -336.065934
-115.136891 30.940289 -334.381810
-108.975746 30.853133 -335.392861
-105.727069 31.637535 -345.817659
-96.655142 30.678821 -337.076539
-90.241956 30.504510 -336.787565
-83.627454 30.243043 -335.411400
-81.794692 31.811846 -354.291737
-71.249460 29.981576 -335.202356
-65.388521 29.981576 -336.394778
-59.334676 29.894420 -336.503670
-53.920358 30.155887 -340.439741
-51.020810 32.073313 -363.031926
-41.884930 30.068731 -341.125379
-35.508569 29.720108 -337.841467
-29.780662 29.894420 -340.394530
-23.765932 29.807264 -339.868662
-19.082070 31.899002 -364.107578
-11.855443 29.720108 -339.495455
-5.980782 29.981576 -342.638783
0.000000 29.371485 -335.717613
5.824308 29.197174 -333.674396
12.620310 31.637535 -361.398387
17.413692 29.110018 -332.273036
23.279495 29.197174 -332.912286
29.259718 29.371485 -334.440106
35.612700 29.807264 -338.832204
41.277902 29.632953 -336.181533
46.445574 29.197174 -330.477433
52.985323 29.632953 -334.536162
58.469739 29.458641 -331.598369
64.438106 29.545797 -331.505319
72.492183 30.504510 -341.048909
76.416411 29.720108 -330.995842
81.217441 29.371485 -325.745365
87.405780 29.545797 -326.202813
95.831377 30.417354 -334.203728
99.610627 29.807264 -325.811679
103.434607 29.284330 -318.338986
108.325976 29.110018 -314.601478
113.800030 29.110018 -312.663013
123.880475 30.243043 -322.719671
123.896126 28.935707 -306.653673
128.450612 28.761395 -302.610678
134.117522 28.848551 -301.232886
138.091304 28.587084 -296.137756
150.225836 29.981576 -308.008609
144.271874 27.802682 -283.149496
141.240895 26.321034 -265.635489
136.196066 24.577919 -245.704207
130.501505 22.834805 -226.035238
137.504957 23.357739 -228.846679
134.087301 22.137559 -214.584538
131.843664 21.178845 -203.021439
132.581471 20.743067 -196.560115
134.277544 20.481600 -191.768207
139.946104 20.830223 -192.619287
131.295961 19.087108 -174.235625
128.796926 18.302706 -164.852548
130.400532 18.128394 -161.031247
129.989347 17.692616 -154.915271
141.823068 18.912796 -163.148777
123.318107 16.123812 -136.958633
122.292567 15.688034 -131.142722
120.410608 15.165099 -124.688834
118.341892 14.642165 -118.341892
121.105822 14.729321 -116.950533
117.299879 14.032075 -109.383907
116.970076 13.770607 -105.320329
117.286678 13.596296 -101.955754
125.916353 14.380698 -105.656365
117.676680 13.247673 -95.292697
116.181796 12.899050 -90.771167
116.952680 12.811894 -88.130165
113.637320 12.288960 -82.562346
110.164715 11.766025 -77.138164
123.882425 13.073361 -83.559751
108.612293 11.330247 -70.533647
108.981911 11.243091 -68.099456
108.446001 11.068779 -65.160931
110.429429 11.155935 -63.756461
123.723395 12.376115 -68.580998
106.430113 10.545845 -56.589895
105.626301 10.371533 -53.819289
106.549490 10.371533 -51.967658
123.691685 11.940337 -57.678380
104.657951 10.022910 -46.596722
103.621232 9.848599 -43.984603
102.525776 9.674287 -41.423102
101.373038 9.499976 -38.913463
124.503535 11.591714 -45.315581
99.843583 9.238509 -34.378903
100.428371 9.238509 -32.631156
100.029901 9.151353 -30.582210
99.590796 9.064197 -28.557201
120.281273 10.894468 -32.229270
97.626949 8.802730 -24.341132
98.036892 8.802730 -22.633600
101.340247 9.064197 -21.540535
116.369124 10.371533 -22.619866
136.367376 12.114648 -24.045248
110.200147 9.761443 -17.453989
97.663480 8.628419 -13.725707
97.888152 8.628419 -12.019154
97.092269 8.541263 -10.204809
120.080869 10.545845 -10.505715
100.370570 8.802730 -7.018594
98.488115 8.628419 -5.161543
97.567609 8.541263 -3.407136
97.612211 8.541263 -1.703827
118.547169 10.371533 -0.000000
101.441233 10.661903 -0.000000
96.453931 10.139261 -1.683610
96.409858 10.139261 -3.366706
95.343258 10.034732 -4.996728
109.130922 11.498131 -7.631177
95.110794 10.034732 -8.321116
93.962011 9.930204 -9.875805
93.775344 9.930204 -11.514164
94.544955 10.034732 -13.287427
110.015100 11.707188 -17.424680
95.003049 10.139261 -16.751601
93.719974 10.034732 -18.217317
93.387764 10.034732 -19.850182
96.903236 10.452846 -22.371875
104.217877 11.289074 -25.984435
93.181535 10.139261 -24.967917
93.687589 10.243789 -26.864484
93.204470 10.243789 -28.495466
128.635128 14.215871 -41.796087
94.033893 10.452846 -32.378466
93.454489 10.452846 -34.014652
93.775084 10.557375 -35.996882
94.054674 10.661903 -38.000555
115.348241 13.170586 -48.962423
93.579719 10.766432 -41.664375
93.739666 10.870960 -43.711524
93.856388 10.975489 -45.776819
95.701554 11.289074 -48.762377
108.007618 12.857001 -57.428669
103.509585 12.438887 -57.376300
97.324779 11.811716 -56.190487
98.886711 12.125302 -59.417131
101.208288 12.543416 -63.241957
