# .PCD v.7 - Point Cloud Data file format
VERSION .7
FIELDS x y z
SIZE 4 4 4
TYPE F F F
COUNT 1 1 1
WIDTH 1426
HEIGHT 1
VIEWPOINT 0 0 0 1 0 0 0
POINTS 1426
DATA ascii
-202.267953 139.798226 45.212070
-204.168419 140.916612 44.291821
-214.178046 147.626927 45.056133
-212.019902 145.949348 43.212833
-201.713536 138.679840 39.793859
-202.773938 139.239033 38.681024
-202.197661 138.679840 37.255976
-203.243996 139.239033 36.129904
-211.638358 144.830962 36.251865
-210.225957 143.712576 34.651731
-201.432390 137.561454 31.903584
-201.628869 137.561454 30.637325
-201.817387 137.561454 29.369857
-201.176809 137.002261 27.986996
-217.785311 148.186119 28.903843
-217.962620 148.186119 27.534895
-201.668582 137.002261 24.190154
-200.992850 136.443068 22.829002
-201.956633 137.002261 21.654068
-205.388110 139.239033 20.717530
-214.593169 145.390155 20.284842
-208.109727 140.916612 18.353472
-201.610749 136.443068 16.504398
-200.883786 135.883876 15.174874
-200.975167 135.883876 13.912393
-200.975167 135.883876 13.912393
-208.505229 140.916612 13.117857
-207.755822 140.357419 11.760674
-200.373701 135.324683 10.080198
-201.261317 135.883876 8.857472
-200.484548 135.324683 7.561498
-202.185358 136.443068 6.353755
-208.022719 140.357419 5.229101
-207.222577 139.798226 3.906335
-200.611254 135.324683 2.520912
-200.623133 135.324683 1.260393
-200.627093 135.324683 -0.000176
-205.597258 138.679840 -1.292004
-208.071999 140.357419 -2.615031
-202.249229 136.443068 -3.812939
-199.734952 134.765490 -5.021121
-199.699461 134.765490 -6.275986
-199.656086 134.765490 -7.530603
-206.230716 139.239033 -9.076538
-208.653587 140.916612 -10.497102
-201.134102 135.883876 -11.386185
-200.231190 135.324683 -12.597659
-201.710442 136.443068 -15.237677
-199.131899 134.765490 -16.301825
-202.328870 137.002261 -17.844009
-204.688835 138.679840 -19.348979
-197.139556 133.647104 -19.885847
-196.186407 133.087911 -21.035726
-196.050364 133.087911 -22.267978
-195.083444 132.528718 -23.400615
-203.157566 138.120647 -25.664958
-205.457793 139.798226 -27.268138
-196.249982 133.647104 -27.301946
-195.254170 133.087911 -28.415083
-194.881689 133.087911 -30.866412
-193.865904 132.528718 -31.955439
-204.284068 139.798226 -34.992507
-204.876413 140.357419 -36.420464
-197.305718 135.324683 -36.354969
-193.815989 133.087911 -36.972564
-193.336087 133.087911 -39.405145
-192.273402 132.528718 -40.448458
-196.876614 135.883876 -42.710317
-203.886016 140.916612 -45.574126
-193.092693 133.647104 -44.437186
-193.092693 133.647104 -44.437186
-192.519048 133.647104 -46.860089
-192.220819 133.647104 -48.068789
-198.338934 138.120647 -50.924984
-204.428493 142.594190 -53.859893
-192.080987 134.206297 -51.899561
-192.550066 134.765490 -53.326682
-192.211205 134.765490 -54.535450
-191.864757 134.765490 -55.742064
-199.457238 140.357419 -59.309403
-203.839551 143.712576 -62.009135
-193.946495 137.002261 -60.333552
-191.983471 135.883876 -61.048498
-191.596105 135.883876 -62.253553
-193.561683 137.561454 -64.239560
-204.931933 145.949348 -69.445594
-209.192507 149.304505 -72.357860
-194.661805 139.239033 -68.704247
-193.446258 138.679840 -69.645152
-194.561340 139.798226 -71.430673
-193.332255 139.239033 -72.361114
-199.070532 143.712576 -75.938257
-209.407575 151.541277 -81.392316
-193.475654 140.357419 -76.602651
-192.990530 140.357419 -77.816775
-193.264710 140.916612 -79.342678
-192.762373 140.916612 -80.555422
-204.458930 149.863698 -86.956414
-205.430240 150.982084 -88.897845
-193.486092 142.594190 -85.176459
-193.703752 143.153383 -86.729265
-193.154996 143.153383 -87.944622
-194.103291 144.271769 -89.853042
-204.036793 152.100470 -96.012677
-204.925309 153.218856 -98.008163
-194.612140 145.949348 -94.582784
-194.014021 145.949348 -95.803693
-193.533506 146.508541 -98.610493
-194.382698 147.626927 -100.586566
-202.553537 154.337241 -106.433457
-201.880802 154.337241 -107.704029
-194.639224 149.304505 -105.416969
-193.246541 148.745312 -106.238442
-194.023149 149.863698 -108.258440
-195.503359 151.541277 -110.700849
-201.273454 156.574013 -115.644174
-201.259097 157.133206 -117.324045
-192.668503 150.982084 -113.944102
-193.370615 152.100470 -116.005398
-193.346147 152.659663 -117.649033
-194.719642 154.337241 -120.167704
-201.691088 160.488363 -126.226742
-198.794068 158.810785 -126.158841
-192.420076 154.337241 -123.816518
-192.332662 154.896434 -125.476060
-192.231963 155.455627 -127.139373
-192.117928 156.014820 -128.806357
-199.532992 162.725135 -135.602786
-197.311563 161.606749 -135.913229
-192.375082 158.251592 -134.302872
-192.204216 158.810785 -135.987772
-191.150917 159.369977 -138.879579
-193.612693 162.165942 -142.535373
-198.694058 167.198678 -148.210233
-199.743113 168.876257 -150.955287
-191.934822 163.843521 -148.880236
-191.647459 164.402714 -150.595481
-191.346094 164.961907 -152.312973
-191.343289 166.639485 -156.278686
-196.745429 172.231414 -162.762330
-191.906181 168.876257 -160.800584
-187.731595 166.080292 -159.321012
-187.984272 167.198678 -161.578203
-187.182770 168.317064 -165.024170
-191.089505 172.790607 -170.614205
-194.933189 177.264150 -176.259675
-190.764748 174.468186 -174.681604
-187.231850 172.231414 -173.621929
-186.137263 172.231414 -174.794906
-186.236855 173.349800 -177.103588
-189.338497 178.382536 -184.639119
-191.713981 181.737694 -189.320259
-187.003365 178.382536 -187.003776
-184.077134 176.704957 -186.405383
-183.481093 177.264150 -188.151826
-182.295286 177.264150 -189.300950
-185.672687 181.737694 -195.248724
-184.442245 181.737694 -196.411478
-179.822285 178.382536 -193.919098
-176.920687 176.704957 -193.210839
-175.703223 176.704957 -194.318644
-173.247534 176.704957 -196.511196
-177.452741 182.296887 -203.848890
-177.249214 183.415272 -206.217250
-174.877156 182.296887 -206.062674
-168.254474 176.704957 -200.802864
-166.989479 176.704957 -201.856067
-165.193468 176.145765 -202.259209
-169.123173 181.737694 -209.746902
-168.523043 183.974465 -214.463004
-161.074748 177.264150 -207.656800
-158.758838 176.145765 -207.348260
-157.452905 176.145765 -208.341672
-156.636440 176.704957 -209.991389
-159.345560 182.856079 -219.320876
-158.447462 183.415272 -220.991493
-151.309868 176.704957 -213.861361
-149.963159 176.704957 -214.807842
-146.786046 176.145765 -215.989644
-145.426055 176.145765 -216.907658
-146.804328 179.500922 -221.966007
-149.030630 183.974465 -228.438761
-140.373436 176.704957 -221.193708
-138.980872 176.704957 -222.071329
-137.147434 176.145765 -222.234676
-136.179341 176.704957 -223.800235
-140.741328 184.533658 -234.604364
-137.782167 184.533658 -236.354402
-130.512211 176.704957 -227.151757
-128.673919 176.145765 -227.245885
-127.647508 176.704957 -228.773844
-125.808178 176.145765 -228.844865
-128.710832 182.296887 -237.649672
-126.871234 183.974465 -241.449966
-120.398559 176.704957 -232.670464
-118.557906 176.145765 -232.683675
-117.093580 176.145765 -233.423998
-115.991694 176.704957 -234.898456
-116.250023 181.737694 -243.068597
-116.132438 183.974465 -246.794759
-109.355509 175.586572 -236.234478
-108.212586 176.145765 -237.671424
-106.378342 175.586572 -237.589992
-105.885500 177.264150 -240.530002
-107.993871 183.415272 -249.559936
-107.072643 184.533658 -251.759366
-99.177817 176.145765 -241.581105
-97.657970 176.145765 -242.199485
-96.134267 176.145765 -242.808304
-94.606770 176.145765 -243.407536
-96.325794 182.296887 -252.517696
-95.899708 184.533658 -256.223682
-89.716388 175.586572 -244.369240
-86.362631 175.027379 -244.695551
-84.552467 174.468186 -244.449857
-82.482738 173.349800 -243.405926
-84.085371 180.060115 -253.361413
-83.004176 181.178501 -255.461656
-77.629035 172.790607 -244.127301
-76.339873 173.349800 -245.401855
-74.796470 173.349800 -245.876666
-73.486406 173.908993 -247.136421
-74.245092 179.500922 -255.554466
-73.769373 182.296887 -260.003702
-70.148790 173.349800 -247.242784
-68.372672 172.790607 -246.879695
-66.820141 172.790607 -247.304417
-65.264973 172.790607 -247.719376
-65.975122 178.941729 -256.957469
-65.767179 182.856079 -262.996830
-60.192122 171.672221 -247.294474
-58.637147 171.672221 -247.667788
-58.637147 171.672221 -247.667788
-57.265785 172.231414 -248.839245
-57.509640 177.823343 -257.284861
-56.946512 181.178501 -262.502277
-52.394712 171.672221 -249.063130
-50.663212 171.113028 -248.575080
-49.260837 171.672221 -249.701859
-49.260837 171.672221 -249.701859
-49.555093 178.382536 -259.778682
-47.170761 175.586572 -256.008350
-44.400494 171.113028 -249.769749
-42.970247 171.672221 -250.860930
-40.899626 176.087966 -248.131515
-39.596057 177.235119 -250.001730
-40.493055 181.250154 -255.665199
-38.516705 179.529425 -253.485008
-35.979535 174.940813 -247.237103
-34.425399 174.940813 -247.458287
-32.869903 174.940813 -247.669702
-31.826439 177.808695 -251.934804
-31.218444 183.544460 -260.263021
-28.842993 178.955848 -253.942683
-26.722887 175.514390 -249.231993
-25.156398 175.514390 -249.394977
-23.511829 174.940813 -248.732599
-22.380316 178.382272 -253.771327
-21.119562 181.250154 -257.989042
-19.066241 177.235119 -252.398873
-17.310297 175.514390 -250.062098
-15.738779 175.514390 -250.165925
-14.074047 174.367237 -248.624190
-12.552784 174.940813 -249.525829
-11.452930 182.397307 -260.238454
-9.663224 179.529425 -256.212427
-9.447113 175.514390 -250.482437
-7.847380 174.940813 -249.718102
-6.319378 176.087966 -251.400266
-4.847740 180.103001 -257.168055
-4.971249 184.691613 -263.720107
-3.190650 177.808695 -253.917088
-1.574606 175.514390 -250.655580
0.000332 176.087966 -251.479678
1.575267 175.514390 -250.655576
3.232498 180.103001 -257.193429
4.894741 181.823730 -259.625062
6.340628 176.661542 -252.219143
6.299455 175.514390 -250.581356
7.848039 174.940813 -249.718081
9.447774 175.514390 -250.482412
11.309546 180.103001 -256.964984
13.211983 184.118036 -262.615674
14.167300 175.514390 -250.259838
15.688003 174.940813 -249.348348
17.254385 174.940813 -249.244856
18.943497 176.087966 -250.765173
20.986571 180.103001 -256.356145
22.884738 182.397307 -259.483162
24.283386 180.676577 -256.887702
25.157056 175.514390 -249.394911
26.723544 175.514390 -249.231923
28.288977 175.514390 -249.059095
29.305901 181.823730 -258.012200
31.024011 182.397307 -258.636295
31.416431 175.514390 -248.683950
33.086101 176.087966 -249.293679
34.538924 175.514390 -248.269535
36.216124 176.087966 -248.858234
38.271256 178.382272 -251.865194
41.134454 184.118036 -259.710426
41.566409 178.955848 -252.172635
42.458519 176.087966 -247.869527
43.871710 175.514390 -246.791353
45.421470 175.514390 -246.510830
48.197396 180.103001 -252.657713
50.576667 182.970883 -256.368205
50.550528 177.235119 -248.018864
51.433334 174.940813 -244.489926
52.968484 174.940813 -244.161937
54.501544 174.940813 -243.824309
57.502155 179.529425 -249.863338
58.604433 182.970883 -254.653051
57.372422 174.367237 -242.323073
59.087571 174.940813 -242.753725
62.133359 174.940813 -241.992061
63.861301 175.514390 -242.389012
67.733376 181.823730 -250.681712
68.374386 183.544460 -253.054094
66.683496 174.940813 -240.777954
67.971432 174.367237 -239.566173
69.475319 174.367237 -239.134370
70.976464 174.367237 -238.693126
75.574058 181.823730 -248.430459
77.863461 183.544460 -250.297249
75.462850 174.367237 -237.312927
76.952432 174.367237 -236.834098
78.438976 174.367237 -236.345920
80.185326 174.940813 -236.624228
83.544893 178.955848 -241.534791
87.241889 183.544460 -247.184717
83.152425 174.940813 -235.597933
84.631080 174.940813 -235.070824
86.106394 174.940813 -234.534434
87.578308 174.940813 -233.988786
91.674375 180.103001 -240.322113
94.666342 182.970883 -243.558904
91.973075 174.940813 -232.296503
93.124482 174.367237 -230.954320
93.430812 174.940813 -231.714038
94.884861 174.940813 -231.122424
100.441253 182.397307 -240.347201
101.628811 181.823730 -238.957561
99.224303 174.940813 -229.292934
100.663026 174.940813 -228.664967
102.097774 174.940813 -228.027973
103.528492 174.940813 -227.381977
107.941181 182.397307 -237.073668
108.052158 180.103001 -233.417309
105.680051 173.793660 -224.580699
107.442467 174.367237 -224.651247
108.851863 174.367237 -223.971736
110.619649 174.940813 -224.017868
115.330658 180.103001 -229.908130
116.029151 178.955848 -227.719214
114.069452 173.793660 -220.438027
115.452245 173.793660 -219.716961
117.216059 174.367237 -219.709950
119.764552 176.087966 -221.130008
125.097886 181.823730 -227.551423
124.529490 178.955848 -223.184252
122.700374 174.367237 -216.694912
124.059478 174.367237 -215.919690
125.001139 173.793660 -214.428260
128.847856 177.235119 -217.869095
131.899837 179.529425 -219.865001
134.556108 181.250154 -221.131263
130.350267 173.793660 -211.219250
132.109385 174.367237 -211.090448
133.433090 174.367237 -210.256218
136.967834 177.235119 -212.857993
140.540454 180.103001 -215.423513
142.343100 180.676577 -215.219461
138.218543 173.793660 -206.156246
139.971558 174.367237 -205.961234
140.798199 173.793660 -204.403109
145.362083 177.808695 -208.216072
149.506191 181.250154 -211.310862
146.057806 175.514390 -203.710128
144.625867 173.793660 -201.712970
145.890404 173.793660 -200.800283
146.663541 173.220084 -199.220000
151.340807 177.235119 -202.890791
157.057639 182.397307 -207.817517
152.384427 175.514390 -199.021822
153.129837 174.940813 -197.413183
154.873312 175.514390 -197.091238
156.618767 176.087966 -196.755153
160.189879 180.103001 -201.241427
166.592902 185.838765 -206.607740
160.633351 177.808695 -196.674844
161.343769 177.235119 -195.030513
163.092093 177.808695 -194.640790
163.781792 177.235119 -192.987661
170.864599 183.544460 -198.788129
176.412997 188.133071 -202.653404
169.557077 179.529425 -192.324162
170.762131 179.529425 -191.255014
170.762131 179.529425 -191.255014
171.411049 178.955848 -189.570717
179.237180 185.838765 -195.739589
184.919391 190.427377 -199.414726
176.635959 180.676577 -188.097614
177.249827 180.103001 -186.390472
176.685337 179.529425 -185.796871
177.849238 179.529425 -184.683064
180.721832 181.250154 -185.321346
191.667492 191.000953 -194.090722
184.194777 182.397307 -184.194209
185.931317 182.970883 -183.608827
185.908364 181.823730 -181.293164
187.043786 181.823730 -180.121496
189.952629 183.544460 -180.636181
198.846624 191.000953 -186.728830
188.002974 179.529425 -174.336076
189.698778 180.103001 -173.704584
189.094642 179.529425 -173.151385
189.571245 178.955848 -171.410465
197.976980 185.838765 -176.762747
202.155978 188.706648 -178.223909
190.914846 177.235119 -166.193364
192.576509 177.808695 -165.524487
193.612723 177.808695 -164.311234
195.269167 178.382272 -163.617595
205.129703 186.412342 -169.697507
208.729634 188.706648 -170.477978
198.578649 179.529425 -162.187256
200.231455 180.103001 -161.450530
201.882818 180.676577 -160.699416
204.820802 182.397307 -160.946145
209.064297 185.265189 -162.166364
216.583081 191.000953 -165.829445
204.875888 180.676577 -156.865691
204.550422 179.529425 -154.587550
205.517681 179.529425 -153.299278
207.136496 180.103001 -152.490594
218.031158 188.706648 -158.408381
220.353599 189.853800 -157.989955
209.305202 179.529425 -148.086184
206.873187 176.661542 -144.423627
205.078142 174.367237 -141.262248
202.379745 172.072931 -139.403534
211.381709 178.955848 -143.654369
214.321293 180.676577 -143.691885
204.115517 172.072931 -136.849415
204.288095 171.499354 -135.112345
205.819056 172.072931 -134.273685
205.280930 170.925778 -132.091325
217.172966 180.103001 -137.821667
219.423388 181.250154 -137.323554
207.618965 171.499354 -129.935894
208.431273 171.499354 -128.628829
209.935137 172.072931 -127.742494
210.031172 171.499354 -125.999517
219.279651 178.382272 -129.681147
220.090128 178.382272 -128.300822
212.368755 171.499354 -122.018372
213.131223 171.499354 -120.681620
213.169940 170.925778 -118.940972
214.630885 171.499354 -117.993875
223.291259 177.808695 -120.934203
226.937624 180.103001 -121.071152
216.091618 170.925778 -113.546427
216.800781 170.925778 -112.186451
217.501385 170.925778 -110.822045
220.389981 172.646507 -110.555143
229.159610 178.955848 -113.157755
226.919072 176.661542 -110.283426
220.956651 171.499354 -105.674641
220.875067 170.925778 -103.935476
221.523749 170.925778 -102.545634
225.145748 173.220084 -102.509485
229.523555 176.087966 -102.766561
228.665277 174.940813 -100.662322
224.030772 170.925778 -96.946334
223.881667 170.352202 -95.216209
225.231315 170.925778 -94.123500
228.849378 173.220084 -93.950863
238.551797 180.103001 -96.187053
233.058415 175.514390 -92.273908
227.727014 171.499354 -90.163067
228.289026 171.499354 -88.730446
228.842026 171.499354 -87.294321
229.385992 171.499354 -85.854750
241.455395 180.103001 -88.646495
242.993328 181.250154 -89.211122
230.446735 171.499354 -82.965497
230.963471 171.499354 -81.515929
231.193749 170.925778 -78.344295
236.346161 174.367237 -78.438248
244.120706 180.103001 -81.018454
236.055275 173.793660 -76.698572
233.409982 171.499354 -74.220966
233.871716 171.499354 -72.752952
234.324217 171.499354 -71.282066
238.693344 174.367237 -70.975729
246.545099 180.103001 -73.310457
235.988076 172.072931 -68.560444
234.838098 170.925778 -66.629168
235.252104 170.925778 -65.152330
235.656822 170.925778 -63.672921
241.597087 174.940813 -63.651860
243.973452 176.661542 -64.277944
238.025166 172.072931 -61.114047
236.815093 170.925778 -59.219845
237.182506 170.925778 -57.730732
236.743438 170.352202 -56.050618
245.073799 176.087966 -56.399123
250.219873 179.529425 -55.930322
241.760506 173.220084 -52.446738
238.077230 170.352202 -50.083530
238.387213 170.352202 -48.586667
238.687784 170.352202 -47.087886
245.416076 174.940813 -46.815186
246.510970 175.514390 -45.420711
239.532915 170.352202 -42.580628
239.795727 170.352202 -41.074767
239.240827 169.778625 -39.434062
241.102009 170.925778 -38.186383
249.435743 176.661542 -37.901312
249.668959 176.661542 -36.333323
240.967593 170.352202 -33.522331
241.173462 170.352202 -32.007635
241.173462 170.352202 -32.007635
241.369810 170.352202 -30.491675
250.503171 176.661542 -30.047642
251.500939 177.235119 -28.565546
241.901652 170.352202 -25.936813
242.874858 170.925778 -24.498608
241.244825 169.778625 -24.334188
242.208475 170.352202 -22.895018
254.587322 178.955848 -22.452166
254.723367 178.955848 -20.852114
247.497932 173.793660 -18.695914
250.062105 175.514390 -17.310187
250.165932 175.514390 -15.738669
249.442039 174.940813 -14.120233
260.979480 182.970883 -13.128862
264.251950 185.265189 -13.293488
248.781420 174.367237 -10.948604
248.845301 174.367237 -9.385258
248.899358 174.367237 -7.821541
248.943589 174.367237 -6.257516
258.806070 181.250154 -4.878503
261.288876 182.970883 -3.283167
249.017309 174.367237 -1.564205
249.022221 174.367237 0.000000
248.198170 173.793660 1.559496
259.650695 181.823730 3.263040
248.158977 173.793660 4.678242
248.158977 173.793660 4.678242
256.313618 179.529425 6.443222
254.630579 178.382272 8.002091
248.026714 173.793660 9.354822
247.963041 173.793660 10.913025
256.888870 180.103001 12.923533
247.806329 173.793660 14.028078
247.713297 173.793660 15.584804
246.793290 173.220084 17.084344
258.116621 181.250154 19.498503
256.356172 180.103001 20.986232
247.375542 173.793660 20.251046
246.427434 173.220084 21.732979
248.732568 174.940813 23.512157
255.915073 180.103001 25.814419
246.788507 173.793660 26.461223
246.617376 173.793660 28.011309
244.809865 172.646507 29.365172
249.496684 176.087966 31.518770
250.917786 177.235119 33.301314
237.722180 168.057896 33.071270
237.509696 168.057896 34.564261
237.287835 168.057896 36.055886
246.196252 174.367237 37.409520
236.247540 167.484319 37.417945
235.199528 166.910743 38.768360
235.758691 167.484319 40.383688
242.758872 172.646507 43.154531
248.927663 177.235119 45.866450
233.346354 166.337167 44.513211
234.955640 167.484319 44.820198
234.669390 167.484319 46.295574
244.808329 174.940813 49.895830
235.672322 168.631472 49.578050
232.954571 166.910743 50.536837
232.632442 166.910743 51.999527
232.301130 166.910743 53.460164
243.917380 175.514390 57.749551
231.611005 166.910743 56.375049
231.252221 166.910743 57.829182
230.457540 166.337167 57.630456
241.992143 174.940813 62.133040
238.428490 172.646507 62.817501
230.121149 166.910743 62.177653
228.936499 166.337167 63.403677
234.462553 170.352202 64.934111
238.778216 173.793660 67.747527
228.121690 166.337167 66.275497
227.700769 166.337167 67.707511
227.270858 166.337167 69.136851
237.000305 173.793660 73.726652
231.848581 170.352202 73.724912
225.927362 166.337167 73.408272
225.461667 166.337167 74.826357
228.866159 169.205049 77.555997
235.341699 174.367237 81.402405
224.011254 166.337167 79.062666
224.011254 166.337167 79.062666
224.280794 166.910743 80.746079
232.996616 173.793660 85.541454
230.920194 172.646507 86.429436
221.953656 166.337167 84.667123
222.180807 166.910743 86.356778
224.680342 169.205049 88.957268
230.194724 173.793660 92.817847
220.513646 166.910743 90.529199
219.940485 166.910743 91.912932
219.358641 166.910743 93.293036
224.782382 171.499354 97.272053
227.915378 174.367237 100.332682
216.813611 166.337167 97.076286
216.944902 166.910743 98.776078
215.576627 166.337167 99.793110
222.357266 172.072931 104.633421
214.305602 166.337167 102.494176
214.305602 166.337167 102.494176
213.657385 166.337167 103.838666
220.345588 172.072931 108.805921
223.318555 174.940813 112.024708
210.932363 165.763590 107.475442
210.252915 165.763590 108.798639
210.290306 166.337167 110.498571
218.264644 173.220084 116.444613
208.869146 165.763590 111.432096
208.164879 165.763590 112.742252
207.452394 165.763590 114.047957
213.169731 170.925778 118.941347
215.982261 173.793660 122.296470
205.265914 165.763590 117.937851
203.062616 165.190014 120.090937
203.006504 165.763590 121.785843
210.634695 172.646507 128.168673
203.551390 167.484319 125.617810
201.369343 166.337167 126.025135
199.881901 165.763590 126.848956
201.836391 168.057896 129.875382
207.190946 173.220084 135.169207
197.455487 165.763590 130.593885
197.311433 166.337167 132.288115
197.153858 166.910743 133.985672
203.728696 173.220084 140.333249
196.599530 168.631472 139.097273
193.058801 166.337167 138.420542
192.185274 166.337167 139.630826
190.644490 165.763590 140.349958
197.638149 172.646507 147.422337
198.015002 173.793660 149.648999
189.266041 166.910743 144.914352
189.362367 168.631472 148.799599
193.550875 173.220084 154.067717
195.129740 175.514390 157.337484
201.116106 181.823730 164.260290
200.080065 181.823730 165.520690
189.618012 173.220084 158.883014
188.848937 174.367237 162.321120
189.678861 176.087966 165.118012
188.637656 176.087966 166.306533
191.255239 179.529425 170.761879
192.608939 181.823730 174.157767
182.448849 173.220084 167.066513
181.996192 173.793660 168.766554
179.737943 172.646507 168.785234
177.012746 172.072931 170.462295
177.697595 173.793660 173.286838
182.433859 179.529425 180.155691
177.243718 175.514390 177.243796
172.714857 173.220084 177.111210
171.598632 173.220084 178.192907
169.911144 172.646507 178.673968
175.514132 179.529425 186.903652
177.121250 182.397307 191.005983
168.726034 174.940813 184.261329
166.397276 174.940813 186.367000
164.681305 174.367237 186.794364
162.428712 173.220084 186.589700
166.058692 178.382272 193.197505
167.491712 181.250154 197.359845
158.882931 173.220084 189.618082
155.969466 172.646507 190.965204
154.252351 172.072931 191.303734
152.537159 171.499354 191.628251
155.885207 176.661542 198.379691
155.639809 177.808695 200.649739
147.404205 169.778625 192.518100
144.483601 169.205049 193.698582
143.263712 169.205049 194.602570
142.038168 169.205049 195.498875
145.580136 174.940813 203.044665
143.017173 174.940813 204.858000
135.221687 166.910743 196.308174
133.525153 166.337167 196.476412
130.141916 165.190014 196.772307
129.798158 166.337167 198.958250
132.978116 172.072931 206.658479
129.936168 171.499354 207.618794
123.896930 165.190014 200.763070
122.633061 165.190014 201.537569
120.090848 165.190014 203.062669
120.875324 168.057896 207.351633
122.018653 171.499354 212.368594
118.941254 170.925778 213.169783
113.653236 165.190014 206.734616
111.961938 164.616437 206.724341
109.736420 165.190014 208.840076
109.551478 166.910743 211.708001
109.086259 170.352202 217.461067
107.717766 170.352202 218.142179
103.122444 165.190014 212.183932
99.401657 163.469284 211.239446
98.760674 164.616437 213.346568
98.775982 166.910743 216.944945
99.084663 169.778625 221.299453
94.994684 167.484319 219.519960
91.369373 163.469284 214.835823
88.351426 162.895708 215.209233
87.610150 164.042861 217.279547
87.449420 166.337167 220.872239
88.730747 171.499354 228.288909
84.375070 165.763590 221.188335
81.547943 162.895708 217.878226
80.459687 163.469284 219.155269
77.699420 163.469284 220.149025
78.189053 167.484319 226.051929
77.818798 169.778625 229.642011
74.568236 165.763590 224.684246
72.142514 163.469284 222.032094
70.746030 163.469284 222.480993
69.346753 163.469284 222.921109
67.944738 163.469284 223.352425
68.874780 169.205049 231.626674
65.589789 164.616437 225.761839
62.091778 162.895708 224.199909
60.681872 162.895708 224.585616
59.478266 163.469284 225.754577
61.215727 174.572220 232.349252
59.754634 174.572220 232.729293
56.132250 168.106582 224.466807
52.934381 166.931012 223.579938
51.528551 166.931012 223.908119
51.528551 166.931012 223.908119
52.238462 173.984435 233.701860
51.283599 175.747790 236.397349
47.132531 166.343226 224.047887
45.400738 165.167656 222.754166
44.000245 165.167656 223.035028
42.749610 165.755441 224.101773
42.806684 171.633294 232.322191
41.346125 171.633294 232.586566
38.244868 164.579871 223.272919
36.841256 164.579871 223.508810
35.436191 164.579871 223.735877
34.029726 164.579871 223.954111
34.020000 171.633294 233.770512
33.442310 176.335576 240.390051
31.324297 165.167656 225.165348
29.802494 164.579871 224.555734
28.492386 165.167656 225.541192
26.978364 164.579871 224.912503
26.751605 172.221079 235.527603
25.788722 175.747790 240.517475
22.653126 163.992085 224.576116
21.317770 164.579871 225.519442
19.900377 164.579871 225.648933
18.416192 163.992085 224.963197
17.672695 170.457723 233.948371
16.370026 172.221079 236.476050
14.223512 164.579871 226.077770
12.757027 163.992085 225.354952
11.381486 164.579871 226.238653
9.959771 164.579871 226.305698
8.903562 171.633294 236.065116
7.420155 171.633294 236.116399
5.692491 164.579871 226.453222
4.269540 164.579871 226.484519
2.826089 163.404300 224.888968
-0.000099 163.404300 224.906724
-1.474223 170.457723 234.610297
-2.948285 170.457723 234.596403
-4.223992 162.816515 224.057895
-5.652028 163.404300 224.835694
-7.064592 163.404300 224.795743
-8.446384 162.816515 223.938476
-10.315683 170.457723 234.388036
-11.869471 171.633294 235.934584
-12.620051 162.228730 222.931769
-14.071314 162.816515 223.655495
-15.476296 162.816515 223.562668
-16.880667 162.816515 223.461016
-19.142484 170.457723 233.832696
-20.753458 171.633294 235.319584
-21.165697 163.404300 223.908571
-21.089561 162.816515 223.103144
-22.490935 162.816515 222.966231
-23.891420 162.816515 222.820516
-26.112690 168.106582 229.900640
-28.134786 171.633294 234.551586
-28.188393 163.404300 223.133254
-28.086996 162.816515 222.330617
-29.589815 163.404300 222.951738
-30.878594 162.816515 221.960120
-33.321161 168.106582 228.966979
-35.245278 170.457723 231.952441
-35.183271 163.404300 222.137732
-36.578300 163.404300 221.912286
-37.971885 163.404300 221.678079
-37.835296 162.816515 220.880676
-40.921538 169.869938 230.196942
-42.367092 169.869938 229.935282
-42.143427 163.404300 220.922987
-43.530686 163.404300 220.653833
-44.916227 163.404300 220.375968
-46.133448 162.816515 219.297714
-49.397112 169.282153 227.700413
-49.225594 168.694367 226.909787
-49.061992 163.404300 219.490218
-52.002631 163.992085 219.643626
-53.190325 163.404300 218.526483
-54.562309 163.404300 218.187967
-57.113784 171.045508 228.391002
-57.742892 168.694367 224.893239
-57.299761 163.404300 217.485108
-58.876146 163.992085 217.901802
-60.028164 163.404300 216.747905
-61.388838 163.404300 216.366461
-64.778468 168.694367 222.968519
-65.486376 166.931012 220.230724
-65.456103 163.404300 215.170940
-66.806762 163.404300 214.755422
-69.500113 163.404300 213.898969
-71.607189 165.167656 215.761572
-75.038631 169.869938 221.437142
-74.577263 165.755441 215.609289
-75.122724 163.992085 212.847768
-74.853467 163.404300 212.084873
-76.458595 163.992085 212.371559
-78.349092 165.167656 213.405870
-82.524292 171.045508 220.486225
-81.601260 166.343226 213.916258
-81.478280 163.404300 209.629017
-83.091621 163.992085 209.865144
-84.106054 163.404300 208.588606
-86.643979 165.755441 211.049650
-90.151936 169.869938 215.726291
-89.289197 165.755441 209.944214
-89.642645 163.992085 207.151616
-90.616481 163.404300 205.843844
-92.238644 163.992085 206.008807
-94.872156 166.343226 208.370356
-100.937501 174.572220 218.048529
-96.794130 165.167656 205.697695
-97.386536 163.992085 203.625781
-99.017659 164.579871 203.737501
-100.295817 164.579871 203.111337
-103.021015 166.931012 205.369686
-106.880355 171.045508 209.764210
-103.734524 163.992085 200.466318
-104.992035 163.992085 199.810581
-106.245402 163.992085 199.146957
-107.494574 163.992085 198.475471
-111.077986 167.518797 202.049829
-114.316273 170.457723 204.880342
-111.216432 163.992085 196.414106
-112.448335 163.992085 195.711440
-113.675799 163.992085 195.001048
-114.486952 163.404300 193.586602
-119.030550 168.106582 198.413470
-121.536486 169.869938 199.735041
-118.540295 163.992085 192.082780
-119.315646 163.404300 190.648397
-120.944656 163.992085 190.578031
-122.139699 163.992085 189.814357
-127.308303 169.282153 195.141356
-131.209640 172.808864 198.386307
-124.961562 164.579871 188.939340
-125.695706 163.992085 187.478493
-126.871180 163.992085 186.685028
-128.041645 163.992085 185.884193
-132.448809 168.106582 189.719504
-137.843628 173.396649 194.827452
-131.051119 163.404300 182.780302
-132.672496 163.992085 182.607789
-133.337597 163.404300 181.119076
-134.956679 163.992085 180.926203
-141.456387 170.457723 187.174397
-144.870852 174.572220 191.692400
-136.727723 163.404300 178.573695
-138.838734 164.579871 178.989587
-139.460752 163.992085 177.477589
-141.076963 164.579871 177.230801
-146.619272 171.045508 184.193439
-149.804946 173.396649 185.787729
-143.292914 164.579871 175.444028
-144.392426 164.579871 174.540235
-144.966644 163.992085 173.009445
-145.527346 163.404300 171.478355
-153.457381 171.045508 178.536456
-157.763259 174.572220 181.229948
-149.268607 163.992085 169.311780
-149.268607 163.992085 169.311780
-150.329471 163.992085 168.370562
-150.841804 163.404300 166.822615
-160.082339 172.221079 174.821465
-162.814119 175.160005 177.804767
-153.476288 163.992085 165.507174
-154.513165 163.992085 164.539594
-155.543941 163.992085 163.565517
-156.007399 163.404300 162.002241
-164.364968 171.045508 168.548484
-167.126107 172.808864 169.239360
-159.033175 163.404300 159.032965
-160.604908 163.992085 158.599053
-161.019033 163.404300 157.021991
-162.002447 163.404300 156.007185
-169.428293 169.869938 161.118769
-171.616778 171.045508 161.158666
-165.507377 163.992085 153.476070
-164.914161 163.404300 152.925977
-166.468423 163.992085 152.433134
-167.422896 163.992085 151.384179
-175.612513 171.045508 156.795023
-178.414772 172.808864 157.293565
-170.246510 163.992085 148.201625
-171.174322 163.992085 147.129016
-172.095376 163.992085 146.050599
-173.009637 163.992085 144.966415
-183.267447 172.808864 151.611805
-181.710082 170.457723 148.410278
-174.817631 163.992085 142.780923
-175.711293 163.992085 141.679700
-177.230987 164.579871 141.076729
-177.477773 163.992085 139.460518
-187.300009 172.221079 145.284571
-184.997396 169.282153 141.645742
-180.074858 163.992085 136.090563
-181.574862 164.579871 135.440155
-182.422269 164.579871 134.296620
-181.770760 163.992085 133.816989
-192.425597 172.808864 139.805172
-190.670280 170.457723 136.707751
-185.581577 165.167656 131.301652
-185.739545 164.579871 129.669917
-187.216866 165.167656 128.959259
-188.692563 165.755441 128.235137
-196.886190 172.221079 132.002758
-192.988209 168.106582 127.639055
-190.398501 165.167656 124.213753
-191.175195 165.167656 123.015000
-191.944343 165.167656 121.811390
-193.391699 165.755441 121.032163
-204.364278 175.160005 127.899236
-197.590691 168.694367 121.939039
-195.588450 166.343226 119.012979
-197.026119 166.931012 118.197909
-197.764885 166.931012 116.957632
-198.495843 166.931012 115.712738
-209.741093 175.747790 120.508871
-202.046203 168.694367 114.405167
-200.641586 166.931012 111.950844
-201.341029 166.931012 110.687974
-202.743905 167.518797 109.806018
-202.743905 167.518797 109.806018
-214.850453 176.923361 114.622892
-204.107725 167.518797 107.249659
-205.439313 167.518797 104.676365
-204.718473 166.931012 104.309079
-204.646688 166.343226 102.657995
-209.640053 169.869938 103.519334
-215.379782 173.984435 104.675527
-205.815435 165.755441 98.433432
-204.965802 164.579871 96.449396
-205.567762 164.579871 95.159662
-205.425315 163.992085 93.530935
-210.439228 167.518797 94.221993
-215.469760 171.045508 94.853658
-204.924296 162.228730 88.678476
-205.477431 162.228730 87.389156
-205.275996 161.640944 85.784443
-205.062537 161.053159 84.185723
-210.839674 165.167656 85.013395
-218.139510 170.457723 86.367347
-205.858816 160.465374 80.012572
-205.104754 159.877589 79.719485
-206.357483 160.465374 78.717551
-206.848004 160.465374 77.419423
-209.608714 162.228730 76.954703
-219.983548 169.869938 79.198756
-209.796285 161.640944 74.045419
-207.199092 159.289803 71.667947
-206.879084 158.702018 70.105022
-207.315480 158.702018 68.803787
-213.899061 163.404300 69.499831
-221.270306 168.694367 70.360940
-210.120499 159.877589 65.364612
-207.802994 158.114233 64.643679
-206.657064 156.938662 62.865841
-207.047980 156.938662 61.566144
-213.645875 161.640944 62.069679
-217.144839 163.992085 61.609374
-209.730963 158.114233 58.084529
-204.624704 153.999736 55.288441
-205.750371 154.587521 54.207776
-205.750371 154.587521 54.207776
-211.572108 158.702018 54.322302
-217.403190 162.816515 54.365755
-205.949486 153.999736 50.128740
-204.685880 152.824166 48.460963
-204.197918 152.236380 46.992497
-204.489148 152.236380 45.708564
-213.469198 158.702018 46.309511
-215.339332 159.877589 45.300430
-203.728917 151.060810 41.523006
-202.143478 149.885239 41.199869
-202.398353 149.885239 39.928959
-201.850550 149.297454 38.504879
-213.227233 157.526448 39.288233
-215.859466 159.289803 38.372507
-201.743045 148.709669 34.556881
-201.956189 148.709669 33.288618
-201.362303 148.121884 31.892483
-200.758877 147.534098 30.505131
-211.354175 155.175307 30.757716
-214.748459 157.526448 29.875035
-208.516051 152.824166 27.673653
-200.659435 146.946313 25.349010
-200.814746 146.946313 24.087737
-200.814746 146.946313 24.087737
-212.216008 155.175307 24.103742
-213.972079 156.350877 22.942381
-201.233088 146.946313 20.298412
-201.356653 146.946313 19.033634
-200.666381 146.358528 17.697033
-200.773613 146.358528 16.435868
-212.166978 154.587521 16.027213
-210.649321 153.411951 14.582080
-201.047736 146.358528 12.648677
-201.123241 146.358528 11.385216
-201.190806 146.358528 10.121304
-200.442194 145.770743 8.821423
-213.428739 155.175307 8.049702
-208.623396 151.648595 6.556072
-199.764094 145.182957 5.021502
-200.600575 145.770743 3.781504
-199.811422 145.182957 2.510861
-199.823254 145.182957 1.255368
-211.153436 153.411951 -0.000186
-207.104261 150.473025 -1.301474
-199.823252 145.182957 -1.255719
-199.811418 145.182957 -2.511213
-199.791695 145.182957 -3.766608
-199.764086 145.182957 -5.021854
-210.240620 152.824166 -6.607265
-205.344303 149.297454 -7.745150
-199.633944 145.182957 -8.786204
-199.574798 145.182957 -10.040360
-198.700050 144.595172 -11.248394
-199.432873 145.182957 -12.547432
-212.263466 154.587521 -14.694194
-208.940076 152.236380 -15.783821
-198.354625 144.595172 -16.238194
-196.741986 143.419602 -16.106176
-195.831016 142.831816 -17.270943
-195.718634 142.831816 -18.501037
-205.257713 149.885239 -20.704741
-197.883915 144.595172 -21.217738
-195.335150 142.831816 -22.186742
-195.191891 142.831816 -23.413623
-195.040927 142.831816 -24.639580
-198.090202 145.182957 -26.290319
-205.934106 151.060810 -28.649184
-197.744196 145.182957 -28.777453
-195.159972 143.419602 -29.654733
-194.969795 143.419602 -30.880366
-194.771920 143.419602 -32.104780
-193.973675 142.831816 -31.973204
-204.135194 150.473025 -34.967006
-199.928816 147.534098 -35.540940
-194.132194 143.419602 -35.770225
-193.903613 143.419602 -36.989280
-194.461095 144.007387 -38.363460
-195.008933 144.595172 -39.746099
-201.880549 149.885239 -42.469508
-195.547041 145.182957 -41.137132
-194.494084 144.595172 -42.193452
-194.225138 144.595172 -43.414654
-193.948523 144.595172 -44.634142
-199.175023 148.709669 -47.156595
-206.735464 154.587521 -50.320435
-193.857633 145.182957 -48.478108
-194.332812 145.770743 -49.896382
-194.015469 145.770743 -51.116419
-193.690468 145.770743 -52.334437
-200.374837 151.060810 -55.493750
-205.470282 155.175307 -58.297404
-193.446530 146.358528 -56.201613
-193.089589 146.358528 -57.415957
-193.499020 146.946313 -58.863487
-193.125353 146.946313 -60.078108
-200.453824 152.824166 -63.741971
-210.051835 160.465374 -68.250203
-192.355161 146.946313 -62.500186
-192.726501 147.534098 -63.962378
-194.619466 149.297454 -65.950993
-195.730389 150.473025 -67.701431
-203.692993 156.938662 -71.891729
-212.847735 163.992085 -75.122818
-196.386572 151.648595 -70.703733
-195.179002 151.060810 -71.657440
-193.967231 150.473025 -72.598775
-193.507254 150.473025 -73.816066
-203.596492 158.702018 -79.133671
-208.360698 162.816515 -82.496074
-195.082834 152.824166 -78.660424
-195.333151 153.411951 -80.191854
-196.318353 154.587521 -82.041467
-194.310034 153.411951 -82.640087
-203.439183 161.053159 -88.036236
-205.666619 162.816515 -89.000136
-195.671409 155.763092 -87.610267
-195.853369 156.350877 -89.173208
-196.023385 156.938662 -90.741880
-195.449371 156.938662 -91.971732
-203.625738 163.992085 -97.386626
-206.647993 166.931012 -100.432288
-195.131921 158.114233 -96.355710
-195.245785 158.702018 -97.942600
-194.626543 158.702018 -99.167425
-194.718135 159.289803 -100.760143
-201.959036 165.755441 -106.121071
-205.571004 169.282153 -109.672763
-194.918516 161.053159 -105.568234
-194.960315 161.640944 -107.180599
-194.989519 162.228730 -108.797642
-194.302078 162.228730 -110.020642
-200.621712 168.106582 -115.269708
-203.388138 171.045508 -118.565170
-193.586552 163.404300 -114.487037
-193.557145 163.992085 -116.117300
-193.514867 164.579871 -117.751698
-192.771196 164.579871 -118.965256
-198.877769 170.457723 -124.466050
-202.190256 173.984435 -128.314133
-193.215993 166.931012 -124.328667
-192.431004 166.931012 -125.540217
-192.987984 168.106582 -127.639394
-192.182198 168.106582 -128.849446
-200.917752 175.747790 -134.706239
-204.751260 179.862287 -139.149126
-192.546650 169.869938 -132.631036
-193.699574 171.633294 -135.227540
-193.506528 172.221079 -136.909180
-193.299971 172.808864 -138.593715
-200.933955 180.450072 -145.987387
-199.361221 179.862287 -146.767371
-191.950317 173.984435 -143.179930
-192.337765 175.160005 -145.358717
-192.063010 175.747790 -147.056161
-191.774492 176.335576 -148.755871
-196.561133 181.625643 -154.456618
-192.421945 178.686717 -153.169359
-186.417452 173.984435 -150.312841
-185.469335 173.984435 -151.481162
-183.890538 173.396649 -152.127815
-184.791382 175.160005 -154.839005
-188.749486 179.862287 -160.184860
-185.285187 177.511146 -159.258257
-181.229879 174.572220 -157.763339
-180.235051 174.572220 -158.898919
-178.629630 173.984435 -159.489410
-179.424252 175.747790 -162.236408
-183.174636 180.450072 -167.731405
-178.557847 176.923361 -165.578440
-174.118058 174.572220 -165.579110
-173.074264 174.572220 -166.669851
-171.444432 173.984435 -167.189184
-173.268793 176.923361 -171.105376
-175.622658 180.450072 -175.623044
-170.012942 176.923361 -174.340827
-166.108294 173.984435 -172.491887
-165.578728 174.572220 -174.118422
-164.481448 174.572220 -175.155341
-163.360162 175.747790 -178.401715
-166.576776 180.450072 -184.225267
-160.566645 175.160005 -179.836940
-158.363510 173.984435 -179.628547
-157.762941 174.572220 -181.230225
-156.621130 174.572220 -182.217896
-156.397377 176.923361 -186.652042
-158.315645 180.450072 -191.371179
-151.992513 174.572220 -186.096254
-149.804619 173.396649 -185.787992
-146.958313 172.808864 -187.019654
-146.276192 173.396649 -188.578572
-148.039389 176.923361 -193.348038
-149.748310 180.450072 -198.146953
-143.179508 173.984435 -191.950632
-140.756143 173.984435 -193.734676
-139.536101 173.984435 -194.615243
-137.843286 173.396649 -194.827695
-139.858180 177.511146 -200.333428
-140.058144 181.037858 -206.089811
-133.354234 173.984435 -198.902148
-131.655581 173.396649 -199.061322
-130.844292 173.984435 -200.562179
-128.313688 173.984435 -202.190539
-129.615913 177.511146 -207.107479
-129.526399 181.037858 -212.866639
-123.192096 173.984435 -205.351221
-121.899413 173.984435 -206.121201
-120.601917 173.984435 -206.883044
-117.992694 173.984435 -208.382199
-119.834611 178.686717 -214.771328
-119.052744 181.625643 -219.817129
-113.099571 174.572220 -211.995347
-111.765341 174.572220 -212.701783
-110.426698 174.572220 -213.399823
-107.736388 174.572220 -214.770600
-109.250411 179.274502 -221.246470
-109.626297 182.213428 -225.566712
-103.669157 174.572220 -216.763110
-102.305157 174.572220 -217.410200
-99.900329 175.160005 -219.414897
-98.519741 175.160005 -220.038254
-100.394837 181.037858 -228.057385
-99.923833 182.801213 -230.911117
-92.959044 175.160005 -222.444575
-91.559557 175.160005 -223.024259
-90.156456 175.160005 -223.595139
-89.853918 174.572220 -222.844819
-88.805062 178.098931 -228.480703
-89.962812 183.388999 -235.837163
-88.195650 182.801213 -235.640072
-82.809853 174.572220 -225.557239
-81.665053 175.160005 -226.834282
-80.238209 175.160005 -227.342918
-79.457971 186.562657 -234.479862
-78.486248 187.766287 -236.490444
-73.543721 179.340877 -226.345247
-72.120109 179.340877 -226.802865
-70.456423 178.739062 -226.488941
-69.031969 178.739062 -226.927158
-68.970543 182.349952 -231.949475
-69.294300 187.164472 -238.513648
-63.307465 178.739062 -228.590272
-61.869950 178.739062 -228.983530
-60.429992 178.739062 -229.367748
-59.384871 179.942692 -231.290001
-59.867944 185.960842 -239.406338
-57.038823 186.562657 -240.916889
-53.195556 178.739062 -231.152721
-51.742140 178.739062 -231.482394
-50.286681 178.739062 -231.802928
-49.158053 179.942692 -233.677370
-49.283799 185.960842 -241.807097
-47.763516 185.960842 -242.111982
-44.445568 178.739062 -232.993432
-42.980759 178.739062 -233.268091
-41.374475 178.137247 -232.747232
-40.450615 180.544507 -236.151284
-40.005138 185.359027 -242.704800
-38.479399 185.359027 -242.951367
-35.512447 178.137247 -233.713473
-34.158301 178.739062 -234.722300
-32.682832 178.739062 -234.932289
-31.311144 179.340877 -235.924696
-29.295174 185.359027 -244.229040
-27.489679 183.553582 -242.027685
-25.202159 178.137247 -235.048872
-23.724815 178.137247 -235.202582
-22.321692 178.739062 -236.142097
-20.977856 179.942692 -237.868781
-20.004159 184.757212 -244.363676
-18.348076 183.553582 -242.891808
-16.380368 178.739062 -236.628467
-14.893273 178.739062 -236.726716
-13.450727 179.340877 -237.612979
-12.037757 180.544507 -239.288055
-10.744718 184.155397 -244.146146
-9.150301 182.951767 -242.612702
-7.475241 179.340877 -237.875956
-4.470439 178.739062 -237.152615
-2.990321 179.340877 -237.974595
-1.525134 182.951767 -242.780405
-1.545202 185.359027 -245.974884
0.000318 181.748137 -241.187924
1.490642 178.739062 -237.190062
2.990949 179.340877 -237.974587
4.486119 179.340877 -237.951097
6.141679 184.155397 -244.305279
9.241246 184.757212 -245.006881
10.569785 181.146322 -240.156802
11.958132 179.340877 -237.692770
13.361077 178.137247 -236.018226
14.843750 178.137247 -235.929617
16.877386 184.155397 -243.798982
18.408877 184.155397 -243.688126
18.047919 180.544507 -238.909928
19.353182 178.739062 -236.403896
20.838160 178.739062 -236.277631
22.397475 179.340877 -236.937129
24.687278 185.359027 -244.737756
26.309658 185.960842 -245.371895
27.039657 180.544507 -238.059946
28.344656 179.340877 -236.299451
29.828800 179.340877 -236.116693
31.311767 179.340877 -235.924613
34.003996 185.960842 -244.424413
35.539079 185.960842 -244.205936
36.232923 181.748137 -238.450813
37.230688 179.340877 -235.063238
38.577001 178.739062 -234.036670
40.046726 178.739062 -233.789665
42.073993 181.146322 -236.678662
44.862714 186.562657 -243.478360
43.994404 182.951767 -238.765876
44.595834 179.340877 -233.777804
45.909237 178.739062 -232.709453
47.210981 178.137247 -231.633859
50.802772 185.960842 -241.492533
52.488420 186.562657 -241.949046
51.742751 178.739062 -231.482257
53.196166 178.739062 -231.152581
54.647481 178.739062 -230.813779
56.096639 178.739062 -230.465865
58.363170 185.960842 -239.777617
60.449824 187.766287 -241.730511
59.186868 179.340877 -230.516300
60.227127 178.137247 -228.595307
61.662236 178.137247 -228.212379
63.094910 178.137247 -227.820442
67.358966 185.960842 -237.407529
68.626489 185.359027 -236.212692
67.377763 178.137247 -226.590729
68.800135 178.137247 -226.162912
70.457021 178.739062 -226.488755
70.457021 178.739062 -226.488755
74.298850 184.757212 -233.652420
77.493006 188.969917 -238.497808
74.461904 178.137247 -224.362533
75.870137 178.137247 -223.890249
77.275375 178.137247 -223.409126
78.677561 178.137247 -222.919184
83.052463 184.757212 -230.686066
85.876484 187.766287 -233.908211
82.585314 177.535432 -220.648672
83.970052 177.535432 -220.125421
85.640801 178.137247 -220.337864
86.729527 177.535432 -219.052869
91.986713 185.359027 -228.132584
94.024899 186.562657 -229.027713
90.842926 177.535432 -217.379238
92.206958 177.535432 -216.804168
93.567350 177.535432 -216.220539
95.567602 178.739062 -217.090261
100.519715 185.359027 -224.503492
101.498803 187.164472 -226.690215
97.626149 177.535432 -214.418529
99.306942 178.137247 -214.525646
100.312834 177.535432 -213.174825
101.650262 177.535432 -212.540337
107.172844 184.757212 -220.517015
109.263476 185.960842 -221.271458
105.638259 177.535432 -210.586630
106.959320 177.535432 -209.918732
106.959320 177.535432 -209.918732
109.010235 178.739062 -210.661141
114.418057 185.359027 -217.748799
115.032102 184.155397 -215.616338
112.200821 177.535432 -207.164539
112.200821 177.535432 -207.164539
113.500251 177.535432 -206.455476
116.740882 180.544507 -209.225351
121.594766 185.960842 -214.742353
122.145884 184.757212 -212.589171
119.054866 178.137247 -204.227961
120.335710 178.137247 -203.475891
120.335710 178.137247 -203.475891
123.666057 181.146322 -206.140041
127.864843 185.359027 -210.134750
127.504930 182.951767 -206.608673
124.140018 176.331802 -198.356627
125.383872 176.331802 -197.572722
126.239734 177.535432 -198.921341
129.647892 180.544507 -201.482270
132.656759 182.951767 -203.339212
133.050621 181.748137 -201.169449
131.198780 177.535432 -195.686102
131.527913 176.331802 -193.536828
133.647421 177.535432 -194.022002
137.149680 180.544507 -196.452657
142.071481 185.359027 -200.802702
144.261066 186.562657 -201.204174
137.280692 177.535432 -191.468488
138.481007 177.535432 -190.602154
139.675854 177.535432 -189.728296
144.685261 182.349952 -193.968220
149.271788 186.562657 -197.515336
146.625734 181.748137 -191.500676
142.256093 176.331802 -185.793702
143.910144 176.933617 -185.527264
146.230125 176.933617 -183.704234
149.214414 180.544507 -187.453300
156.906133 188.368102 -194.594254
156.104924 185.960842 -191.130369
154.757391 182.951767 -187.068974
156.955571 184.155397 -187.317213
157.612651 183.553582 -185.718428
163.982221 189.571732 -190.780999
166.064535 191.978992 -193.203615
162.555821 186.562657 -186.735053
162.669600 185.359027 -184.511876
164.889507 186.562657 -184.677626
166.046609 186.562657 -183.637956
173.129957 193.182622 -189.070072
173.771459 192.580807 -187.392937
168.931696 185.960842 -179.893433
168.407603 184.155397 -177.092261
