# .PCD v.7 - Point Cloud Data file format
VERSION .7
FIELDS x y z
SIZE 4 4 4
TYPE F F F
COUNT 1 1 1
WIDTH 1437
HEIGHT 1
VIEWPOINT 0 0 0 1 0 0 0
POINTS 1437
DATA ascii
235.401959 254.416194 -492.201501
228.831744 250.612629 -486.290389
223.106697 247.654301 -481.961356
220.074060 247.654301 -483.353654
216.662371 247.231683 -483.899692
217.634425 251.880484 -494.375848
215.963651 253.570957 -499.060589
212.469012 253.148339 -499.573656
204.782957 247.654301 -490.027844
201.699998 247.654301 -491.304852
197.931230 246.809065 -490.881364
197.512127 250.190011 -498.856611
197.985515 254.838812 -509.379933
191.873918 251.035247 -502.992747
186.485902 248.076920 -498.246777
182.726956 247.231683 -497.707097
176.458320 247.231683 -499.963955
175.387327 250.190011 -507.058423
175.106692 254.416194 -516.734019
167.003429 247.231683 -503.201102
163.838447 247.231683 -504.240476
160.666997 247.231683 -505.259944
157.219991 246.809065 -505.394064
156.942888 251.457866 -515.909751
155.764785 254.838812 -523.835386
146.907610 245.541210 -505.656670
143.232836 244.695974 -504.825945
140.541907 245.541210 -507.462793
137.350670 245.541210 -508.335822
133.461305 244.273355 -506.559580
130.163509 250.190011 -520.505926
123.032367 242.582882 -505.462740
121.315677 245.541210 -512.399278
114.638391 238.356700 -498.136651
112.494794 240.469791 -503.269511
107.601153 236.666227 -495.995049
0.186576 0.422618 -0.886895
0.186576 0.422618 -0.886895
0.181000 0.422618 -0.888050
0.175417 0.422618 -0.889170
0.169826 0.422618 -0.890254
0.164229 0.422618 -0.891304
90.734062 241.737646 -510.405957
80.639583 222.719824 -470.767605
76.353485 218.916260 -463.216814
74.575751 222.297206 -470.848606
71.888172 223.142442 -473.099927
65.651215 212.576986 -451.120763
61.691527 208.773421 -443.445390
56.877013 201.588911 -428.550950
57.477402 213.844840 -454.975530
52.998491 207.505567 -441.829831
48.175687 199.053201 -424.143757
44.446918 194.404400 -414.525513
41.932477 194.827019 -415.698328
39.234463 194.404400 -415.051305
37.342454 198.207965 -423.414860
32.980549 188.487745 -402.865553
30.653446 189.755600 -405.776020
27.790337 187.642508 -401.439891
24.812213 184.261562 -394.370423
22.231388 183.416326 -392.708819
16.776788 177.922288 -381.186567
13.800685 170.737778 -365.888169
11.273731 167.356832 -358.720774
8.974060 166.511595 -356.972485
6.713889 166.088977 -356.115677
4.453450 165.243740 -354.338360
2.261177 167.779450 -359.797086
0.000459 162.285413 -348.022190
-2.180522 161.862794 -347.109034
-4.304478 159.749703 -342.557300
-6.422568 158.904466 -340.711199
-6.405486 158.481848 -339.805052
-8.699825 161.440176 -346.100249
-12.638357 156.368757 -335.095634
-14.544325 154.255666 -330.482454
-16.529436 153.410429 -328.574220
-18.439923 152.142574 -325.749300
-20.713915 153.833047 -329.245087
-22.907378 154.678284 -330.916728
-24.917855 154.255666 -329.862532
-26.989938 154.255666 -329.699458
-29.379431 155.946139 -333.134584
-31.642564 156.791375 -334.747984
-34.745742 161.440176 -344.461613
-37.005980 161.862794 -345.137644
-37.537296 155.100902 -330.490033
-39.721010 155.523520 -331.147514
-41.687284 155.100902 -329.992243
-43.640614 154.678284 -328.825372
-46.455086 157.213993 -333.930659
-49.596440 160.594939 -340.807069
-48.877662 151.719956 -321.672239
-52.032024 155.100902 -328.519982
-0.147398 0.422618 -0.894241
-0.153014 0.422618 -0.893298
-0.158624 0.422618 -0.892319
-94.923243 244.273355 -515.173860
-0.169824 0.422618 -0.890255
-0.175414 0.422618 -0.889170
-0.180998 0.422618 -0.888050
-0.192143 0.422618 -0.885706
-0.197704 0.422618 -0.884481
-0.203257 0.422618 -0.883222
-94.311354 196.094873 -409.814799
-0.208803 0.422618 -0.881927
-0.214340 0.422618 -0.880598
-82.010940 157.636612 -327.954119
-76.632085 143.690209 -298.463813
-77.120466 141.154499 -292.718023
-78.958134 141.154499 -292.227686
-79.341319 138.618790 -286.485229
-83.187891 139.041408 -286.335924
-85.501967 139.886645 -287.545023
-75.173672 120.446205 -247.116634
-63.533567 99.737910 -204.234755
-64.540907 99.315292 -202.967840
-65.534847 98.892673 -201.696364
-68.228209 101.005765 -205.581485
-70.972924 103.118856 -209.440554
-71.694948 102.273619 -207.277450
-69.376257 97.202200 -196.567208
-70.302948 96.779582 -195.274699
-71.840851 97.202200 -195.679903
-74.294101 97.202200 -194.761698
-77.486342 99.737910 -199.359515
-79.738317 101.005765 -201.396714
-75.918331 94.666491 -188.283463
-77.099845 94.666491 -187.802741
-77.579402 93.821254 -185.642152
-82.291327 98.047437 -193.491182
-84.585248 99.315292 -195.465620
-84.716248 98.047437 -192.441829
-82.960829 94.666491 -185.288306
-82.621182 92.976018 -181.464047
-84.509057 92.553399 -179.591446
-87.590943 94.666491 -183.144976
-90.720743 96.779582 -186.666706
-90.687984 95.511727 -183.655110
-87.776403 91.285545 -174.980720
-88.874100 91.285545 -174.425754
-89.968288 91.285545 -173.863902
-94.853046 95.089109 -180.515819
-96.838584 95.934345 -181.515536
-99.703631 97.624818 -184.091229
-92.562628 89.595071 -168.371266
-93.618702 89.595071 -167.786358
-95.268213 89.172453 -165.810860
-98.133893 90.862926 -168.340927
-103.803139 95.089109 -175.521992
-98.376566 89.172453 -163.985746
-98.462743 88.327217 -161.815917
-99.477512 88.327217 -161.194067
-100.007549 87.904598 -159.797596
-105.380214 91.708163 -166.053074
-110.429728 94.243872 -169.270103
-106.491496 90.017690 -161.013592
-104.472867 87.481980 -155.824656
-104.940454 87.059362 -154.415571
-105.394478 86.636744 -153.006793
-108.428957 88.327217 -155.314082
-115.160714 92.976018 -162.768148
-108.673557 86.214125 -149.576678
-109.611224 86.214125 -148.890914
-110.544563 86.214125 -148.199272
-112.019978 86.636744 -148.224827
-119.560738 91.708163 -156.153267
-121.094994 92.130781 -156.115091
-113.673945 85.791507 -144.661853
-116.051677 86.214125 -143.927526
-116.380402 85.791507 -142.493577
-116.695711 85.368889 -141.061206
-125.728805 91.285545 -150.050715
-126.669113 91.285545 -149.257781
-119.333765 85.368889 -138.836614
-119.608672 84.946271 -137.400498
-121.325809 84.946271 -135.886641
-121.569362 84.523652 -134.449404
-131.592608 90.862926 -143.709131
-132.492955 90.862926 -142.879479
-122.841109 83.678416 -130.812785
-124.909697 84.523652 -131.351893
-125.284904 83.678416 -128.474182
-127.363286 84.523652 -128.974205
-136.502259 90.017690 -136.502559
-139.936709 91.708163 -138.189473
-129.771623 84.523652 -126.550693
-129.911377 84.101034 -125.104157
-130.694860 84.101034 -124.285436
-131.581763 83.678416 -122.017058
-143.708841 90.862926 -131.592924
-144.532822 90.862926 -130.687382
-134.534271 84.101034 -120.118882
-134.606509 83.678416 -118.671860
-135.349485 83.678416 -117.823765
-137.461734 84.523652 -118.152544
-141.656425 86.636744 -120.218683
-150.745116 91.708163 -126.311214
-139.685571 84.101034 -114.087499
-141.810693 84.946271 -114.345347
-141.817256 84.523652 -112.887634
-141.811128 84.101034 -111.434376
-153.966456 90.862926 -119.428888
-157.592202 92.553399 -120.663027
-144.609347 84.523652 -109.288101
-145.293165 84.523652 -108.377342
-146.701104 84.946271 -107.999616
-148.110004 85.368889 -107.608455
-155.412154 89.172453 -111.428614
-160.548333 91.708163 -113.590694
-149.368816 84.946271 -104.278895
-151.416984 85.368889 -102.903108
-152.813326 85.791507 -102.454403
-153.454045 85.791507 -101.492233
-163.197399 90.862926 -106.468482
-166.911751 92.553399 -107.402680
-156.104976 86.214125 -99.067457
-157.492606 86.636744 -98.565479
-157.337536 86.214125 -97.098014
-160.267225 87.481980 -97.520868
-169.425808 92.130781 -101.640616
-167.720796 90.862926 -99.190035
-161.293891 87.059362 -94.026317
-161.881488 87.059362 -93.011028
-163.251348 87.481980 -92.438631
-166.782656 88.749835 -91.689763
-174.527841 92.553399 -94.524606
-174.318681 92.130781 -92.999553
-166.876653 87.904598 -87.686739
-167.424308 87.904598 -86.636497
-168.772879 88.327217 -85.994292
-171.740147 89.595071 -86.151292
-177.966484 92.553399 -87.879455
-181.775681 94.243872 -88.344180
-172.515845 89.172453 -82.507920
-173.850900 89.595071 -81.808237
-176.006401 90.440308 -81.475747
-176.514851 90.440308 -80.368265
-184.146744 93.821254 -81.065091
-186.315989 94.666491 -80.626348
-179.312781 90.862926 -76.261753
-179.788406 90.862926 -75.133600
-181.933741 91.708163 -74.690875
-185.761645 93.398636 -74.901976
-192.969905 96.779582 -76.402410
-188.834009 94.243872 -72.033391
-184.190065 91.708163 -68.939341
-185.470367 92.130781 -68.093041
-185.894544 92.130781 -66.926359
-191.859973 94.666491 -66.362688
-200.856775 98.892673 -68.064639
-194.399087 95.511727 -64.517479
-192.214773 94.243872 -62.454571
-191.739698 93.821254 -60.970981
-193.849804 94.666491 -60.303473
-200.673284 97.624818 -59.670999
-205.395851 99.737910 -59.673225
-209.254304 101.428383 -59.371032
-199.484649 96.356964 -53.900003
-199.819373 96.356964 -52.645548
-201.901877 97.202200 -51.839796
-206.619774 99.315292 -51.669545
-213.985120 102.696238 -52.085037
-205.488889 98.470055 -48.651464
-205.790517 98.470055 -47.359387
-206.968501 98.892673 -46.263146
-208.420400 99.315292 -43.845294
-209.579822 99.737910 -42.715892
-221.403283 105.231947 -43.678639
-216.331826 102.696238 -41.267712
-217.478150 103.118856 -40.071882
-248.064453 117.487877 -44.097914
-240.550834 113.684312 -39.650642
-0.895150 0.422618 -0.141779
-0.895150 0.422618 -0.141779
-0.896023 0.422618 -0.136151
-0.896860 0.422618 -0.130519
-0.897663 0.422618 -0.124881
-0.898430 0.422618 -0.119239
-0.899161 0.422618 -0.113591
-369.841284 173.696106 -44.363137
-316.081669 148.339010 -35.901488
-327.114713 153.410429 -35.074272
-311.999193 146.225919 -31.471960
-319.409061 149.606865 -30.193338
-319.592466 149.606865 -28.185848
-333.477409 155.946139 -25.191661
-358.040995 167.356832 -24.785819
-388.943318 181.725853 -24.470590
-448.810091 209.618658 -25.407103
-381.978803 178.344906 -19.216878
-335.915010 156.791375 -14.784148
-326.944632 152.565192 -12.331656
-337.885986 157.636612 -10.618795
-347.912273 162.285413 -8.746139
-334.368158 155.946139 -6.303734
-336.213637 156.791375 -4.225505
-336.233550 156.791375 -2.112942
-340.771728 158.904466 -0.000300
-348.015322 162.285413 2.186368
-347.994716 162.285413 4.372956
-337.946051 157.636612 8.495004
-335.168423 156.368757 10.532800
-332.378637 155.100902 12.536030
-330.482447 154.255666 14.544470
-334.005191 155.946139 16.802796
-338.290272 158.059230 21.283127
-329.108429 153.833047 22.782345
-333.477453 155.946139 25.191074
-339.635594 158.904466 27.803483
-340.357001 159.327085 30.016533
-350.086826 163.975886 33.092647
-351.675453 164.821122 35.473556
-347.841056 163.130649 37.295997
-353.903478 166.088977 40.196770
-354.543787 166.511595 42.527541
-360.563712 169.469923 45.549480
-365.660980 172.005633 48.529478
-362.655855 170.737778 50.451382
-360.201201 169.892541 54.732248
-368.801698 174.118724 58.412135
-379.158302 179.190143 62.496999
-388.584412 183.838944 66.561230
-400.650986 189.755600 71.222185
-409.999924 194.404400 75.544630
-398.834117 189.332981 76.081335
-401.015724 190.600836 79.112010
-404.062938 192.291309 82.354081
-413.293372 196.940110 86.943557
-420.710287 200.743674 91.267910
-436.933675 208.773421 97.665872
-417.763750 199.898438 96.140852
-425.088779 203.702002 100.643052
-425.328631 204.124620 103.526301
-447.529835 215.112695 111.913249
-476.664212 229.481716 122.386157
-469.751024 226.523388 123.762392
-453.215339 218.916260 122.456227
-480.386758 232.440044 133.042057
-0.870322 0.422618 0.252851
-487.349658 237.088845 144.914425
-0.868716 0.422618 0.258314
-0.867076 0.422618 0.263768
-0.865401 0.422618 0.269210
-0.863693 0.422618 0.274643
-0.861950 0.422618 0.280064
-465.353838 228.636480 154.441464
-0.858363 0.422618 0.290873
-484.789334 239.201936 167.683439
-484.580825 239.624554 171.027768
-484.349395 240.047173 174.376084
-486.647332 241.737646 178.665287
-479.573527 238.779318 179.495597
-475.895894 237.511463 181.536230
-487.417035 243.850737 189.447755
-489.587742 245.541210 193.841061
-473.698792 238.779318 194.470800
-472.467553 238.779318 197.443280
-472.051676 239.201936 200.762669
-469.949168 238.779318 203.364738
-480.274988 244.695974 211.425675
-481.418629 245.963828 215.550223
-467.682247 239.624554 212.937524
-465.512637 239.201936 215.491110
-463.329434 238.779318 218.025854
-463.585623 239.624554 221.714779
-472.780203 245.118592 229.773269
-471.327172 245.118592 232.739281
-459.324289 239.624554 230.413260
-457.059976 239.201936 232.883259
-456.392640 239.624554 236.166957
-454.899759 239.624554 239.029877
-462.184825 244.273355 246.575982
-461.423361 244.695974 249.906707
-446.374917 238.356700 249.061272
-446.378527 239.201936 252.754118
-445.567458 239.624554 256.005299
-443.950144 239.624554 258.799811
-453.236670 245.541210 268.042973
-456.983854 248.499538 274.149114
-438.331452 238.356700 262.959354
-438.993304 239.624554 267.121606
-435.763748 238.779318 268.922653
-436.370238 240.047173 273.097730
-447.654475 247.231683 284.089715
-446.622816 247.654301 287.387208
-431.145251 240.047173 281.274115
-430.125386 240.469791 284.477472
-427.576707 240.047173 286.669697
-431.014209 243.005501 292.916505
-432.897135 245.118592 298.189447
-426.556247 242.582882 297.790721
-420.237634 240.047173 297.324210
-419.834311 240.892409 301.014948
-415.735046 239.624554 302.048745
-418.208167 242.160264 307.878768
-420.624265 244.695974 313.751666
-423.705949 247.654301 320.213391
-408.732837 240.047173 312.951790
-404.055380 239.624554 317.503265
-403.470659 240.469791 321.164610
-402.150298 240.892409 324.262217
-410.634051 247.231683 335.382127
-398.043853 240.892409 329.290052
-395.967018 240.892409 331.784520
-393.183544 240.469791 333.679458
-389.704606 239.624554 334.961778
-393.060975 243.005501 342.164283
-396.342003 246.386447 349.422002
-385.350026 240.892409 344.058432
-381.163910 239.624554 344.649310
-379.659318 240.047173 347.649474
-377.467492 240.047173 350.028067
-379.224786 242.582882 356.115300
-377.636535 243.005501 359.115544
-369.200901 240.469791 360.036073
-368.866067 241.737646 364.259160
-364.647522 240.469791 364.647041
-361.712376 240.047173 366.286107
-366.364092 244.695974 375.689010
-369.654326 248.499538 383.858905
-358.491493 242.582882 376.979303
-353.634158 240.892409 376.581638
-350.644812 240.469791 378.131585
-348.874095 240.892409 380.995686
-349.512597 243.005501 386.541422
-353.113124 247.231683 395.490350
-341.031589 240.469791 386.823907
-337.404248 239.624554 387.591855
-336.143817 240.469791 391.078782
-333.679977 240.469791 393.183103
-329.868280 241.315027 398.741740
-335.955972 247.654301 411.335546
-324.831629 241.315027 402.855396
-320.600705 240.047173 402.761149
-319.183712 240.892409 406.192818
-315.514277 240.047173 406.758031
-319.563998 245.118592 417.367616
-323.492591 250.190011 428.043808
-314.294107 245.118592 421.350317
-306.804697 241.315027 416.748048
-300.487404 240.469791 419.097363
-298.371682 240.892409 421.716951
-301.422885 245.541210 431.757754
-300.246501 246.809065 435.882237
-289.860547 240.469791 426.516287
-286.670261 240.047173 427.576328
-283.978078 240.047173 429.369079
-281.274684 240.047173 431.144880
-283.464414 244.273355 440.525202
-284.090306 247.231683 447.654100
-272.617498 239.624554 435.601621
-269.875169 239.624554 437.305918
-267.593300 240.047173 439.767189
-262.507387 240.469791 443.875153
-263.364778 243.850737 451.779606
-266.390605 249.344774 463.641272
-254.540960 240.892409 449.532810
-251.711455 240.892409 451.123254
-248.435396 240.469791 451.901686
-245.159509 240.047173 452.656791
-246.576592 244.273355 462.184500
-247.040316 247.654301 470.142988
-237.000602 240.469791 458.002177
-234.941140 241.315027 461.097298
-231.632987 240.892409 461.754271
-228.727146 240.892409 463.200540
-230.170055 245.541210 473.595038
-228.753975 247.231683 478.302325
-219.955903 240.892409 467.429404
-217.014634 240.892409 468.802193
-211.106511 240.892409 471.492193
-208.870205 241.737646 474.468279
-208.764438 245.118592 482.425419
-207.857401 247.654301 488.731673
-198.841736 240.469791 475.812194
-197.225002 242.160264 480.405771
-195.219418 243.428119 484.157134
-199.513496 252.725721 503.912765
-201.268402 259.064994 517.827538
-202.210094 264.559032 530.090178
-193.474697 257.374521 516.920591
-191.784756 259.487613 522.379925
-187.270776 257.797140 520.163716
-180.719590 257.797140 522.475898
-178.014979 258.642376 525.317798
-177.851044 263.291177 535.887826
-171.119693 258.219758 526.651315
-167.258000 257.374521 525.988704
-164.488258 258.219758 528.760030
-159.052585 254.838812 522.846493
-115.208771 188.487745 387.447170
-103.922280 173.696106 357.702142
-97.467293 166.511595 343.525859
-94.581258 165.243740 341.511188
-92.197224 164.821122 341.223782
-89.029062 166.934213 346.744567
-90.381402 169.469923 352.011573
-86.628787 166.511595 346.417872
-83.164436 163.975886 341.671751
-81.224825 164.398504 343.069468
-78.661148 163.553267 341.806601
-77.698207 166.088977 347.600979
-73.697254 166.934213 350.323683
-71.132666 166.088977 349.003719
-69.289253 166.934213 351.222106
-66.741454 166.088977 349.870019
-64.870310 166.934213 352.065067
-63.925955 170.315159 359.604253
-64.719081 172.428251 364.065844
-63.824098 182.993707 387.206389
-76.353077 218.916260 463.216881
-77.978014 232.440044 492.332261
-76.789194 238.356700 505.356808
-59.646966 193.136546 409.865239
-55.197333 186.797272 396.766977
-51.153201 181.303234 385.426371
-48.276138 179.612761 382.143521
-45.982061 180.035380 383.339161
-43.777143 180.880616 385.421541
-42.224226 184.684180 393.799274
-40.840603 189.755600 404.877584
-34.873842 185.106799 395.427981
-31.870995 182.148471 389.316291
-29.697314 183.838944 393.123787
-27.414444 185.106799 396.015052
-25.551670 189.755600 406.129197
-26.994837 222.719824 476.860733
-25.728534 238.779318 511.417129
-22.275623 236.243608 506.136102
-17.250454 213.422222 457.360227
-13.237723 196.517492 421.225163
-10.545291 195.672255 419.487980
-7.841047 193.981782 415.921370
-5.307321 196.940110 422.306080
-2.585468 191.868691 411.455612
-0.000169 179.612761 385.180809
2.106804 156.368757 335.327263
3.906188 144.958064 310.839028
5.876240 145.380682 311.714496
7.447493 138.196172 296.269055
9.337315 138.618790 297.122274
13.149926 139.464026 298.792344
15.072559 139.886645 299.608986
17.518199 144.535446 309.461819
20.145133 149.606865 320.199875
21.029991 141.999736 303.792387
22.870079 141.577118 302.750523
24.993691 142.844972 305.310709
26.991129 143.267591 306.050448
29.937044 148.339010 316.702244
32.835922 152.565192 325.525213
41.547524 181.725853 387.491313
61.848656 242.160264 515.618221
66.109451 245.963828 523.311891
68.919241 244.273355 519.292467
72.929951 246.809065 524.235165
77.005464 249.344774 529.147751
78.694853 244.273355 517.901195
81.805571 243.850737 516.501371
84.901811 243.428119 515.082939
88.136476 243.428119 514.539321
92.636657 246.809065 521.113937
97.222886 250.190011 527.652034
97.819085 243.428119 512.786678
101.389897 244.273355 513.940285
104.074063 243.005501 510.628942
107.840088 244.273355 512.625637
114.470954 244.695974 512.114520
120.531997 250.612629 523.750272
120.270759 243.428119 507.989858
123.674500 243.850737 508.104749
127.304293 244.695974 509.076121
130.049601 243.850737 506.510532
136.462119 249.767393 517.953028
139.950202 250.190011 517.960326
139.089644 243.005501 502.222458
61.349781 104.809329 216.229528
62.707172 104.809329 215.839791
63.803772 104.386711 214.572816
68.315921 109.458130 224.572600
71.340860 111.993839 229.331336
66.463586 102.273619 209.013632
68.335666 103.118856 210.315806
71.554855 103.964092 211.157217
73.768957 105.231947 213.273014
79.330439 111.148603 224.770259
82.276140 113.261694 228.531016
79.962182 108.190275 217.800169
82.282149 109.458130 219.839864
84.953885 111.148603 222.705692
86.679833 111.571221 223.012262
92.750215 117.487877 234.260531
96.592730 120.446205 239.557000
199.540232 241.315027 477.484820
204.664629 243.850737 481.225735
207.684200 243.850737 479.930298
211.425887 244.695974 480.274895
219.624412 250.612629 490.517510
223.828725 251.880484 491.602404
220.821489 245.118592 477.026987
224.200247 245.541210 476.450169
227.971491 246.386447 476.667304
228.981155 244.273355 471.149826
235.548413 248.076920 477.015500
238.947294 248.499538 476.336195
237.820919 244.273355 466.750189
241.581925 245.118592 466.856562
244.932054 245.541210 466.131744
247.855993 245.541210 464.583600
252.928237 247.654301 467.001771
260.543025 249.344774 466.952370
259.006188 245.118592 457.419578
261.875109 245.118592 455.783175
264.733692 245.118592 454.128779
268.043172 245.541210 453.236552
275.081795 249.344774 458.538100
277.015199 248.499538 455.252193
276.538359 245.541210 448.103839
279.348402 245.541210 446.357463
282.147417 245.541210 444.593465
285.425715 245.963828 443.574071
291.178329 248.499538 446.326293
295.476797 249.767393 446.755763
293.735692 245.963828 438.115440
297.501477 246.809065 437.760387
300.246117 246.809065 435.882501
304.016503 247.654301 435.473665
312.504689 252.303102 441.693292
314.301353 249.344774 432.598940
314.326678 247.231683 426.966315
319.712594 249.344774 428.615259
315.842061 244.273355 417.921429
329.481123 252.725721 430.320694
333.289352 253.570957 429.674269
330.382771 249.344774 420.445488
331.324658 248.076920 416.234084
330.520089 245.541210 409.910948
335.955610 247.654301 411.335842
339.933792 246.809065 405.692374
344.821833 248.499538 406.312544
346.186424 247.654301 402.763339
346.925005 246.386447 398.529497
350.021528 246.809065 397.021681
353.112776 247.231683 395.490660
125.216565 87.059362 138.482776
132.816852 91.708163 145.045843
125.714365 86.214125 135.569255
126.563685 86.214125 134.776697
126.783460 85.791507 133.322060
128.448780 85.791507 131.718367
138.189288 91.708163 139.936891
139.065804 91.708163 139.065865
130.908648 85.791507 129.273908
128.474017 83.678416 125.285073
382.553424 247.654301 368.396830
384.203805 247.231683 365.361370
389.795189 249.344774 366.042202
390.093727 248.076920 361.737095
391.919546 246.386447 354.375209
390.575054 245.541210 353.159513
395.490505 247.231683 353.112950
400.580095 247.654301 348.710387
406.199732 249.767393 349.140412
414.604482 253.570957 351.859196
405.692225 246.809065 339.933970
407.820071 246.809065 337.378237
408.527942 245.963828 333.662578
412.732908 247.231683 332.795796
421.906633 251.457866 335.840341
424.008439 251.457866 333.182811
418.932270 247.231683 324.957302
418.087356 245.541210 320.114787
419.367384 245.118592 316.935124
422.803388 245.963828 315.377694
429.885604 248.922156 316.476110
440.664203 253.993575 320.161403
434.294609 248.076920 307.270296
433.987274 246.809065 302.979095
437.375117 247.654301 301.274550
446.005740 251.457866 303.105297
447.901391 251.457866 300.296995
442.975975 247.654301 292.977188
444.048991 247.231683 289.692921
448.146872 248.499538 288.368446
458.367317 253.148339 290.888847
448.662111 246.809065 280.791018
451.188768 247.231683 278.442436
454.477833 248.076920 276.544284
459.315162 249.767393 275.548238
462.597600 250.612629 273.579551
461.175487 248.922156 268.841832
461.283890 248.076920 265.035874
463.728698 248.499538 262.578891
470.118033 251.035247 262.309625
489.229360 260.332849 268.956206
469.392453 248.922156 254.223298
473.379391 250.190011 252.548827
479.770600 252.725721 252.098951
485.369729 254.838812 251.162111
474.017819 248.076920 241.524221
475.525994 248.076920 238.541130
482.703825 251.035247 238.357550
491.528174 254.838812 238.885400
484.843313 250.612629 231.882021
483.830536 249.344774 227.673441
485.251491 249.344774 224.628969
490.777470 251.457866 223.453389
498.523586 253.993575 219.459559
487.416120 247.654301 210.923856
492.067817 249.344774 209.276007
491.700565 248.499538 205.481226
495.497141 249.767393 203.420334
500.542199 251.035247 198.178737
212.030562 106.077184 82.411601
209.157022 104.386711 79.785680
207.956594 103.541474 77.834557
220.003705 109.035512 79.206232
203.404234 100.583146 71.789612
205.564319 101.428383 71.102699
203.431923 100.160528 68.937084
207.301741 101.851001 68.799430
194.800678 95.511727 63.294596
195.194522 95.511727 62.069386
197.311462 96.356964 61.380147
205.496908 100.160528 62.513115
207.623062 101.005765 61.737344
199.303652 96.779582 57.903081
201.407318 97.624818 57.144441
199.142098 96.356964 55.152155
522.334929 252.303102 141.132444
522.334973 251.880484 137.616850
516.166654 248.499538 132.529110
518.747631 249.344774 129.723083
522.194253 250.612629 127.104178
532.683754 255.261430 126.117488
521.100556 249.344774 119.922452
522.728241 249.767393 116.843639
520.794951 248.499538 112.980524
526.815917 251.035247 110.825513
539.046504 256.529285 109.866248
521.142799 259.077348 102.811044
522.661363 259.515719 99.703016
528.580983 262.145946 97.394291
535.376935 265.214544 95.172385
521.790086 258.200605 89.378710
522.341365 258.200605 86.098463
520.208839 256.885492 82.393009
533.156578 263.022688 81.013142
532.765646 262.584317 77.532206
520.779184 256.447121 72.449400
521.224115 256.447121 69.175838
533.240656 262.145946 67.363980
533.653388 262.145946 64.012221
524.221481 257.323863 59.542154
523.691574 256.885492 56.151398
524.928300 257.323863 52.950063
533.303878 261.269203 50.412073
531.819459 260.392461 46.902332
524.937277 256.885492 42.973241
524.300682 256.447121 39.606432
527.229130 257.762234 36.497605
524.756981 256.447121 33.014920
340.995800 166.581036 19.303444
296.227414 144.662478 14.902571
289.131803 141.155509 12.724891
293.696825 143.347365 11.077361
291.065577 142.032252 9.147107
283.929222 138.525282 7.137425
287.523263 140.278767 7.227772
291.157538 142.032252 5.488842
278.604155 135.895056 3.501228
278.620655 135.895056 1.750649
288.512889 140.717138 0.000000
284.912092 138.963654 -1.789678
271.414377 132.388086 -3.410397
271.387591 132.388086 -5.115665
269.553071 131.511344 -6.775562
277.590334 135.456684 -8.723141
288.233900 140.717138 -12.684865
299.818076 146.415963 -15.082681
359.840341 175.786830 -20.369580
407.247343 199.020501 -25.621119
404.388378 197.705387 -27.993200
405.100751 198.143758 -30.601180
410.275269 200.773985 -33.585873
408.265507 199.897243 -36.005112
400.872780 196.390274 -37.892934
401.521037 196.828645 -40.501131
401.873447 197.267016 -45.644897
406.933104 199.897243 -48.811279
403.943262 198.582129 -51.029194
388.467978 191.129820 -51.556009
374.783060 184.554253 -52.138139
371.779795 183.239139 -54.103623
366.989542 181.047284 -55.763400
363.968743 179.732170 -57.646346
370.693980 183.239139 -61.101483
357.014377 176.663572 -61.153226
354.449904 175.786830 -65.308926
354.032562 175.786830 -67.534697
351.837646 174.910088 -69.409883
362.843536 180.608912 -73.952616
357.094460 177.978686 -75.120796
346.953422 173.156603 -75.266948
356.122294 177.978686 -79.602129
411.672668 206.034439 -94.738717
530.016992 265.652915 -125.485125
512.625443 257.323863 -124.774136
488.288852 245.487842 -122.105351
457.913064 230.583223 -117.571267
448.473952 226.199512 -118.156232
450.325746 227.514625 -121.675051
444.355218 224.884398 -123.062780
448.761216 227.514625 -127.324256
447.089254 227.076254 -129.890621
401.465574 204.280954 -119.376231
358.389869 182.362397 -106.567623
342.235239 174.471716 -104.108893
338.999671 173.156603 -105.456218
344.326111 176.225201 -109.490675
352.179412 180.608912 -114.429377
330.980466 170.088005 -109.845355
329.432511 169.649634 -111.634324
329.574011 170.088005 -113.995797
328.003699 169.649634 -115.765173
335.726440 174.033345 -120.868325
341.710211 177.540314 -125.453451
324.921670 169.211263 -121.611911
325.830691 170.088005 -124.291719
325.881057 170.526376 -126.662117
325.914466 170.964747 -129.038042
332.599512 174.910088 -134.108261
340.064870 179.293799 -139.608804
325.912281 172.279861 -136.197777
330.012694 174.910088 -140.353421
431.408569 229.268110 -186.686316
502.617100 267.844771 -221.260546
508.599868 271.790111 -227.719806
512.223312 275.297080 -237.113467
500.151083 269.598255 -235.352235
498.524576 268.721513 -234.586862
497.040792 268.721513 -237.714534
497.962528 270.036626 -242.011449
505.296964 274.858709 -249.512862
505.326024 275.735451 -253.488797
491.710862 269.159884 -250.538190
487.732231 267.844771 -252.383537
486.136841 267.844771 -255.443048
487.694254 269.598255 -260.184732
490.001474 271.790111 -265.384045
479.660536 266.968028 -263.694600
452.063449 253.378523 -255.972582
446.549619 251.186667 -256.569087
444.152253 250.748296 -258.917106
444.837564 252.063409 -263.075235
446.258805 253.816894 -267.714518
448.407008 256.008750 -272.849180
439.035111 251.625038 -270.940974
436.562194 251.186667 -273.217329
433.319157 250.309925 -274.991726
435.361975 252.501781 -280.140682
440.368110 256.447121 -287.290448
441.202449 259.077348 -295.804542
425.954391 251.186667 -289.477314
424.867342 251.625038 -292.657790
420.809237 250.309925 -293.778024
424.091132 253.378523 -300.050055
426.580176 256.008750 -305.851064
422.468627 254.693636 -306.940402
414.017476 250.748296 -304.793080
412.094244 250.748296 -307.388396
408.912686 251.186667 -313.088923
410.488368 253.378523 -318.406381
411.306521 255.132007 -323.200564
406.454849 253.378523 -323.539456
400.215912 250.748296 -322.701900
398.180429 250.748296 -325.210145
396.821760 251.186667 -328.278463
400.262668 254.693636 -335.383286
400.203344 256.008750 -339.636282
392.608563 252.501781 -337.457208
388.446768 251.186667 -338.146960
386.314474 251.186667 -340.580953
383.496480 250.748296 -342.402894
388.004283 255.132007 -350.833771
389.769524 257.762234 -356.906638
376.081135 251.625038 -353.162597
372.552110 250.748296 -354.279858
370.966174 251.186667 -357.237114
367.427318 250.309925 -358.305886
369.645452 253.378523 -365.028169
367.980175 253.816894 -367.979042
363.134691 252.063409 -367.725759
358.307017 250.309925 -367.426215
355.991352 250.309925 -369.670257
353.661633 250.309925 -371.899706
355.624827 253.378523 -378.700814
356.300852 257.323863 -389.105554
344.806874 250.748296 -381.336481
340.608249 249.433183 -381.484086
338.798990 249.871554 -384.290842
338.738293 251.625038 -389.123642
343.902935 257.323863 -400.105237
338.474372 255.132007 -398.831742
330.766487 251.186667 -394.750287
328.279685 251.186667 -396.820749
324.074268 249.871554 -396.787192
322.138966 250.309925 -399.515242
324.660225 254.255265 -407.860268
323.201831 255.132007 -411.305526
314.000619 249.871554 -404.805902
311.450966 249.871554 -406.770823
309.430929 250.309925 -409.436737
305.777481 249.433183 -409.931969
309.590070 254.693636 -420.530784
306.941703 254.693636 -422.467682
297.996580 249.433183 -415.622576
292.235821 248.994811 -418.597431
290.619662 249.871554 -421.905699
286.952634 248.994811 -422.236628
291.801759 255.570379 -435.229267
289.557207 256.008750 -437.803773
279.434250 249.433183 -428.322994
276.737519 249.433183 -430.070265
274.029862 249.433183 -431.800558
271.788209 249.871554 -434.275692
274.718526 255.132007 -445.153221
273.317770 256.447121 -449.173987
263.554505 249.871554 -439.321329
261.246507 250.309925 -441.742237
257.560510 249.433183 -441.821990
254.779394 249.433183 -443.431559
256.859697 254.255265 -453.626891
256.194116 256.447121 -459.156236
243.983492 249.871554 -450.484475
241.148217 249.871554 -452.008567
238.303421 249.871554 -453.514814
235.862286 250.309925 -455.801408
237.890305 255.570379 -466.884337
236.564129 257.323863 -471.583336
226.831288 249.871554 -459.360178
223.547706 249.433183 -459.967945
220.265456 248.994811 -460.552617
217.367389 248.994811 -461.927486
218.236458 253.378523 -471.440529
218.994416 257.762234 -480.982408
208.254867 248.556440 -465.122141
205.328326 248.556440 -466.421456
202.750634 248.994811 -468.527229
200.154573 249.433183 -470.618991
200.659272 253.816894 -480.160224
201.051838 258.200605 -489.726052
190.576353 248.556440 -472.640825
187.933789 248.994811 -474.664592
184.947693 248.994811 -475.836038
181.633953 248.556440 -476.148930
182.419367 253.816894 -487.381944
181.831588 257.323863 -495.268314
172.322562 248.118069 -478.642203
170.209194 249.433183 -482.258144
167.175736 249.433183 -483.318074
164.712605 250.309925 -486.061415
163.637124 253.378523 -493.058025
162.480145 256.447121 -500.060073
154.432373 248.556440 -485.653517
151.377892 248.556440 -486.614251
148.840602 249.433183 -489.275549
146.275824 250.309925 -491.924105
143.683619 251.186667 -494.559679
138.896963 253.816894 -501.523298
135.778378 248.118069 -490.262844
132.460861 247.679698 -490.238603
129.606993 248.118069 -491.930331
126.737087 248.556440 -493.605517
121.587238 250.748296 -499.525611
120.102836 254.255265 -507.276620
112.478535 244.611100 -488.751459
110.189687 246.364584 -492.957122
106.137430 244.172729 -489.247917
101.951144 241.542502 -484.627882
100.699137 245.926213 -494.065766
0.173962 0.438371 -0.881798
91.451203 238.035533 -479.400420
0.162868 0.438371 -0.883914
89.037966 248.118069 -500.864916
0.151748 0.438371 -0.885891
0.146179 0.438371 -0.886827
78.175588 243.734358 -493.576884
70.211999 227.952996 -462.068941
66.012994 223.569285 -453.606723
0.123846 0.438371 -0.890221
58.179232 215.678604 -438.362768
54.184637 210.856522 -428.910891
51.809792 212.171635 -431.920065
49.399261 213.486748 -434.916223
44.940835 205.596068 -419.131934
42.306481 205.596068 -419.406031
42.577098 206.911181 -422.088798
39.078361 202.527470 -413.399934
36.243253 201.212356 -410.951353
32.560455 194.636789 -397.734003
31.347177 202.965841 -414.959301
28.056517 198.143758 -405.284940
25.396625 197.267016 -403.659183
22.605876 195.075160 -399.323999
20.051258 194.636789 -398.560494
16.598181 184.115882 -377.128416
14.194424 183.677511 -376.327106
11.293199 175.348459 -359.340203
8.990013 174.471716 -357.607047
6.895417 178.417057 -365.744183
4.360052 169.211263 -346.907104
2.174649 168.772892 -346.028875
0.000464 171.403118 -351.428472
-2.139860 166.142665 -340.636222
-4.268791 165.704293 -339.717330
-6.267683 162.197324 -332.494728
-10.360640 160.882211 -329.694664
-12.669077 163.950809 -335.910147
-15.056019 167.019407 -342.109389
-16.573031 160.882211 -329.440812
-18.185452 156.936871 -321.253962
-20.429317 158.690355 -324.721441
-22.220908 156.936871 -321.000078
-25.185189 163.074067 -333.401492
-28.379482 169.649634 -346.673631
-29.135861 161.758953 -330.372733
-31.464814 163.074067 -332.867563
-33.465445 162.635695 -331.769038
-37.733261 163.074067 -332.215367
-40.783258 167.019407 -340.003299
-43.594629 169.649634 -345.090582
-43.515308 161.320582 -327.881210
-45.203043 160.005469 -324.930662
-46.467128 157.375242 -319.303679
-49.012525 159.128726 -322.559794
-55.115684 171.841490 -347.989603
-0.151745 0.438371 -0.885892
-80.856599 225.322769 -454.849272
-87.621661 235.843677 -475.546217
-88.586864 230.583223 -464.391801
-97.417597 245.487842 -493.807180
-94.235940 230.144852 -462.361260
-0.185027 0.438371 -0.879543
-102.134597 234.966935 -470.802574
-104.306443 233.213450 -466.642960
-110.864668 241.104131 -481.744562
-0.207072 0.438371 -0.874615
-116.696975 240.665760 -479.440099
-112.511557 226.199512 -449.923249
-0.223520 0.438371 -0.870557
-0.228985 0.438371 -0.869135
-0.234442 0.438371 -0.867680
-0.239889 0.438371 -0.866189
-0.245327 0.438371 -0.864665
-0.250754 0.438371 -0.863107
-65.067827 111.346271 -218.824555
-61.471420 103.017219 -202.073544
-62.739864 103.017219 -201.683321
-64.005831 103.017219 -201.285136
-67.768946 106.962560 -208.572243
-70.776740 109.592787 -213.260578
-67.499912 102.578848 -199.191721
-67.868718 101.263735 -196.215425
-68.801093 100.825364 -194.937569
-69.720102 100.386993 -193.655775
-76.243826 106.085818 -203.707335
-79.444283 108.716044 -208.262881
-73.913453 99.510250 -190.167062
-73.913453 99.510250 -190.167062
-74.775974 99.071879 -188.863222
-76.801991 98.633508 -187.077217
-81.788064 103.455591 -195.713191
-82.664381 103.017219 -194.368343
-79.243603 97.318395 -183.121767
-80.030490 96.880023 -181.797639
-81.171172 96.880023 -181.291208
-82.308649 96.880023 -180.777619
-87.973711 102.140477 -190.044598
-91.462174 104.770704 -194.367616
-84.925825 96.003281 -177.572448
-85.646986 95.564910 -176.226961
-86.752555 95.564910 -175.685350
-87.451696 95.126539 -174.333423
-92.526940 98.195137 -178.808502
-97.411260 102.140477 -185.384383
-91.382030 94.688168 -171.287698
-92.028413 94.249797 -169.919825
-92.661231 93.811425 -168.550624
-94.594303 94.688168 -169.534860
-99.643383 98.633508 -175.976212
-103.433690 101.263735 -180.022576
-95.962357 92.934683 -164.615828
-96.994768 92.934683 -164.009633
-98.023349 92.934683 -163.396963
-99.515269 93.373054 -163.545663
-106.330728 97.756766 -169.901121
-107.396143 97.756766 -169.229676
-102.134694 92.057941 -158.725675
-103.129974 92.057941 -158.080815
-103.625368 91.619570 -156.680048
-105.608797 92.496312 -157.518933
-105.586034 91.619570 -155.365517
-112.678420 96.880023 -163.581279
-107.015530 91.181199 -153.289482
-107.457440 90.742827 -151.880341
-108.409605 90.742827 -151.202172
-110.833914 91.181199 -150.551761
-117.151591 95.564910 -157.056846
-117.594181 95.126539 -155.600612
-113.105487 90.742827 -147.722334
-113.480539 90.304456 -146.298573
-114.397515 90.304456 -145.582670
-118.108759 92.496312 -148.377064
-124.680347 96.880023 -154.628820
-128.492189 99.071879 -157.322980
-116.874070 89.427714 -141.276805
-117.182174 88.989343 -139.850760
-119.516156 89.427714 -139.048814
-123.928268 92.057941 -142.362635
-130.764131 96.441652 -148.323126
-128.700452 94.249797 -144.146348
-129.603604 94.249797 -143.334859
-123.217827 88.989343 -134.563234
-123.449738 88.550972 -133.127336
-127.975357 91.181199 -136.280216
-133.784064 94.688168 -140.683955
-129.677755 91.181199 -134.661312
-127.383761 88.989343 -130.626469
-127.570455 88.550972 -129.183995
-128.379619 88.550972 -128.379901
-134.939424 92.496312 -133.254584
-139.192888 94.249797 -134.042217
-133.519215 89.866085 -126.971280
-132.348782 88.550972 -124.284051
-133.127065 88.550972 -123.450031
-133.900091 88.550972 -122.611137
-141.334556 92.934683 -127.795492
-146.157405 95.564910 -130.496594
-137.535723 89.427714 -121.254315
-137.616951 88.989343 -119.797628
-138.366940 88.989343 -118.930596
-139.111467 88.989343 -118.058869
-146.739690 93.373054 -122.955017
-149.586934 94.688168 -123.749344
-142.008099 89.427714 -115.984412
-142.034366 88.989343 -114.525699
-141.342154 87.674229 -111.065859
-144.167765 88.989343 -111.828227
-151.290252 92.934683 -115.837837
-154.858418 95.126539 -118.569861
-146.249942 88.989343 -109.091023
-146.932490 88.989343 -108.169960
-147.609237 88.989343 -107.244627
-148.280157 88.989343 -106.315059
-157.749867 94.249797 -111.610731
-160.658922 95.564910 -112.160861
-150.997875 89.427714 -104.011181
-151.648412 89.427714 -103.060386
-153.039496 89.866085 -102.606040
-153.681164 89.866085 -101.642445
-161.844411 94.249797 -105.585806
-168.551312 97.756766 -108.457688
-155.569665 89.866085 -98.727738
-155.425027 89.427714 -97.271501
-156.797999 89.866085 -96.765047
-157.402892 89.866085 -95.777953
-170.198454 96.441652 -100.655322
-171.604016 96.880023 -100.036608
-161.318728 90.742827 -92.687687
-161.897914 90.742827 -91.672269
-162.470708 90.742827 -90.653231
-163.824707 91.181199 -90.063613
-172.290595 95.564910 -93.312909
-178.424476 98.633508 -95.190007
-167.084444 92.057941 -87.795924
-167.632780 92.057941 -86.744375
-168.709578 92.057941 -84.631045
-169.237997 92.057941 -83.569348
-181.077051 98.195137 -88.004641
-184.058919 99.510250 -88.028543
-171.596337 92.496312 -80.747317
-172.915939 92.934683 -80.045130
-175.051456 93.811425 -79.701972
-173.908136 92.934683 -77.865941
-185.910528 99.071879 -81.841544
-188.895697 100.386993 -81.742690
-177.826190 94.249797 -75.629506
-177.468578 93.811425 -74.164143
-178.762513 94.249797 -73.388963
-180.053680 94.688168 -72.600436
-191.842379 100.386993 -74.565095
-195.666171 102.140477 -74.639616
-182.663038 95.126539 -68.367800
-184.776454 96.003281 -67.838279
-185.199044 96.003281 -66.675963
-186.461877 96.441652 -65.810151
-198.763526 102.578848 -68.750567
-203.447803 104.770704 -68.942665
-190.621217 97.756766 -61.936792
-191.006613 97.756766 -60.737869
-192.242694 98.195137 -59.803527
-194.334427 99.071879 -59.117623
-204.178683 103.893962 -60.713343
-209.734760 106.524189 -60.933799
-196.624875 99.510250 -54.455199
-197.491064 99.948621 -54.695090
-199.566181 100.825364 -53.922033
-202.508446 102.140477 -53.354027
-203.162906 102.140477 -50.805084
-213.084374 106.962560 -51.865791
-203.785284 102.140477 -48.248119
-205.836209 103.017219 -47.369902
-207.006926 103.455591 -46.271735
-209.928660 104.770704 -45.541821
-216.367459 107.839302 -45.517112
-221.052618 110.031158 -45.054240
-210.749759 104.770704 -41.576902
-211.889706 105.209075 -40.420328
-215.920581 106.962560 -38.383763
-253.364927 125.374148 -43.399732
-0.886827 0.438371 -0.146178
-0.887728 0.438371 -0.140603
-0.888594 0.438371 -0.135023
-0.889425 0.438371 -0.129437
-0.890221 0.438371 -0.123846
-501.622465 246.802956 -66.574795
-478.846489 235.405306 -60.492824
-486.356297 238.912275 -58.339325
-475.433261 233.213450 -50.977455
-485.580991 238.035533 -48.981491
-474.246698 232.336708 -44.829945
-494.216025 241.980873 -43.586440
-474.111183 231.898337 -35.815464
-487.776580 238.473904 -33.766921
-494.258257 241.542502 -31.096539
-474.702024 231.898337 -26.872843
-387.005597 188.937964 -17.032725
-329.623031 160.882211 -12.432680
-330.592992 161.320582 -10.389597
-331.550255 161.758953 -8.334816
-337.886520 164.827551 -6.370064
-343.312213 167.457778 -4.314719
-340.642944 166.142665 -0.000300
-336.142340 163.950809 2.111777
-338.818605 165.265922 4.257647
-335.190628 163.512438 6.318650
-345.027923 168.334520 8.673023
-345.789851 168.772892 13.041849
-329.538434 160.882211 14.502924
-326.747828 159.567097 16.437700
-327.535456 160.005469 18.541178
-331.897596 162.197324 20.880940
-343.416274 167.896149 23.772798
-347.741330 170.088005 26.268576
-340.403037 166.581036 27.866308
-342.011867 167.457778 30.162478
-347.865633 170.526376 35.089259
-352.106655 172.718232 37.753360
-357.220806 175.348459 40.573556
-353.389237 173.594974 42.389053
-358.466167 176.225201 45.284500
-358.174562 176.225201 47.535902
-360.539479 177.540314 50.156959
-359.327794 177.101943 52.291856
-365.212305 180.170541 55.493681
-388.825091 192.006562 61.583511
-390.204133 192.883305 64.317694
-397.765337 196.828645 68.133845
-393.789708 195.075160 70.002482
-403.065163 199.897243 74.266864
-410.918082 204.280954 81.065538
-415.684753 206.911181 84.722781
-415.144222 206.911181 87.332916
-418.979116 209.103037 90.892354
-416.645459 208.226295 93.130936
-433.570062 216.993718 99.778392
-453.925349 227.514625 107.470333
-0.873297 0.438371 0.212563
-458.642642 230.583223 114.692216
-489.253011 246.364584 125.618400
-462.380014 233.213450 121.820397
-473.752984 239.350646 128.005383
-0.866189 0.438371 0.239889
-0.864665 0.438371 0.245327
-458.325385 233.213450 136.283998
-470.386579 239.350646 139.870419
-0.859887 0.438371 0.261581
-0.856532 0.438371 0.272366
-480.514662 245.926213 152.797111
-468.320161 240.665760 155.425927
-473.293079 243.734358 160.384613
-475.673686 245.487842 164.530434
-479.715855 248.118069 169.310727
-465.957708 241.542502 167.754685
-461.519568 239.789017 169.440005
-461.287608 240.227388 172.651512
-462.713016 241.542502 176.507462
-472.790251 246.802956 180.351545
-475.836445 248.994811 184.946646
-457.951449 240.227388 181.315395
-457.636760 240.665760 184.525303
-456.468328 240.665760 187.397060
-459.428340 242.857615 191.994217
-465.656836 246.802956 198.042956
-463.578439 246.364584 200.607883
-451.614863 240.665760 198.808973
-450.716959 241.542502 205.213164
-449.418678 241.542502 208.041033
-451.355669 243.295986 212.391439
-454.066438 245.487842 217.162127
-452.693013 245.487842 220.010806
-444.048654 241.542502 219.269269
-442.662188 241.542502 222.054963
-440.457415 241.104131 224.423848
-439.193801 241.980873 230.777084
-445.665110 246.364584 237.762700
-450.485011 249.871554 243.982502
-433.190751 241.104131 238.148214
-431.685880 241.104131 240.865313
-431.728200 241.980873 244.458624
-429.404390 241.542502 246.718644
-432.459250 245.049471 255.755261
-429.302286 244.172729 257.542668
-419.997436 239.789017 255.562872
-421.442883 241.542502 260.084825
-421.324189 242.419244 263.681318
-421.935757 243.734358 267.768146
-416.465820 241.542502 267.982165
-424.559781 247.241327 276.977831
-413.065462 241.542502 273.194334
-412.833859 242.419244 276.785323
-411.830003 242.857615 279.878952
-413.764286 245.049471 285.010302
-417.861105 248.556440 291.720402
-410.150165 245.049471 290.187179
-405.397000 243.295986 290.663611
-400.654156 241.542502 291.091853
-399.541082 241.980873 294.136331
-403.448646 245.487842 300.940043
-405.135098 247.679698 306.178575
-407.485142 250.309925 311.996476
-392.733413 242.419244 304.634825
-390.104884 241.980873 306.541085
-390.280767 243.295986 310.665392
-389.020785 243.734358 313.675615
-394.003428 248.118069 321.799196
-385.048408 243.734358 318.539301
-381.661539 242.857615 319.797824
-377.588832 241.542502 320.444838
-376.931200 242.419244 323.982685
-380.311466 245.926213 331.065683
-382.268999 248.556440 337.014997
-371.428117 242.857615 331.628305
-366.568662 242.419244 335.662518
-364.452410 242.419244 337.959097
-362.321770 242.419244 340.242333
-364.736026 245.487842 346.847734
-363.844351 246.364584 350.379479
-356.487845 242.857615 347.638598
-354.296544 242.857615 349.871601
-351.455713 242.419244 351.455249
-349.240531 242.419244 353.656559
-352.659127 246.364584 361.635219
-353.661305 250.309925 371.900017
-338.397009 241.104131 360.355744
-337.959577 242.419244 364.451964
-335.663002 242.419244 366.568219
-336.269987 242.857615 367.231091
-338.778452 246.364584 374.670057
-343.002346 251.186667 384.166174
-329.882898 243.295986 374.178215
-326.935234 242.857615 375.565615
-322.190047 242.857615 379.644244
-320.375581 243.295986 382.350036
-322.550202 246.802956 389.895714
-328.053774 252.940152 401.660305
-311.983632 242.419244 386.921340
-308.986632 241.980873 388.170734
-307.096928 242.419244 390.811191
-304.084465 241.980873 392.022825
-309.264990 248.118069 403.916563
-310.514389 251.186667 410.871115
-297.716212 242.857615 399.125589
-294.669715 242.419244 400.264499
-288.569270 241.542502 402.474840
-287.073004 242.419244 405.747459
-288.119460 245.487842 412.701946
-291.639007 250.748296 423.386326
-279.374298 242.419244 411.086259
-276.785868 242.419244 412.833493
-273.690695 241.980873 413.814766
-272.067427 242.857615 417.031766
-275.278069 248.118069 427.803002
-273.547884 248.994811 431.041923
-264.635515 243.295986 422.847617
-261.501454 242.857615 423.737145
-256.618483 243.295986 427.760467
-253.925737 243.295986 429.364394
-251.222965 243.295986 430.951372
-254.779004 249.433183 443.431784
-247.116359 244.611100 436.420571
-246.559077 246.802956 441.889039
-241.612768 244.611100 439.491388
-237.990529 243.734358 439.420153
-238.609421 247.241327 447.250792
-237.884947 249.433183 452.719383
-229.665864 243.734358 443.827843
-226.464651 243.295986 444.461275
-222.055497 244.611100 449.689633
-221.657548 244.172729 448.883737
-219.101679 247.679698 458.120313
-218.515048 250.309925 464.367436
-210.307052 244.172729 454.312252
-207.075952 243.734358 454.806676
-203.846956 243.295986 455.278466
-202.430873 245.049471 459.840732
-201.322404 247.241327 465.227918
-200.154159 249.433183 470.619167
-193.381068 244.611100 462.745257
-190.128411 244.172729 463.119710
-188.559260 245.926213 467.639501
-190.157057 256.008750 489.240037
-191.884456 262.584317 503.021701
-189.980345 264.337802 507.584471
-183.999496 260.392461 501.174572
-179.933543 259.077348 499.783801
-177.388050 259.954090 502.599593
-174.814253 260.830832 505.403061
-174.519908 265.214544 515.003930
-170.431293 263.899430 513.531172
-164.979393 260.392461 507.753450
-162.330581 261.269203 510.493081
-155.118140 259.954090 509.912967
-140.895736 241.104131 473.832449
